-0.0267913 0.111027 0.0374116
-0.0234083 0.111027 0.0392228
-0.0246322 0.111027 0.0388112
-0.0231914 0.157766 -0.0037248
-0.027 0.157766 -0.000749517
0.0452734 0.0867491 0.0194367
0.0453831 0.0855458 0.0194367
-0.0753993 0.168739 -0.0273019
-0.0770718 0.166963 -0.0273019
-0.0776829 0.16632 -0.0273019
-0.0171169 0.111027 0.0406921
-0.0168603 0.111747 0.0403058
-0.0168603 0.115077 0.0382204
-0.0108888 0.111027 0.0421013
-0.0168603 0.113846 0.0390532
-0.0168603 0.108352 0.0416284
-0.0168603 0.109791 0.0413703
-0.0168603 0.110386 0.041146
-0.0183763 0.111027 0.0404773
-0.063599 0.15939 -0.0170553
-0.063599 0.160793 -0.0195693
-0.063599 0.161459 -0.0208551
-0.063599 0.155395 0.0077619
-0.063599 0.154878 0.0043946
-0.0327897 0.125427 0.0194367
-0.0168603 0.12446 0.0280805
-0.0168603 0.126241 0.0244741
-0.0168603 0.125416 0.0260424
-0.0168603 0.0454275 0.0512168
-0.0168603 0.0469765 0.0498297
-0.0168603 0.0427938 0.0520659
-0.00695819 0.111027 0.0424448
-0.00743224 0.111027 0.0424594
-0.00576774 0.111027 0.0425701
-0.0898015 0.151198 0.0194367
-0.0915933 0.148647 0.0194367
-0.0168603 0.0476577 0.0491519
-0.0168603 0.0486351 0.0477331
-0.0168603 0.0490135 0.0474147
-0.0168603 0.0495765 0.0474245
0.00301753 0.111027 0.0422749
-0.000153366 0.111027 0.0424202
-0.0168603 0.0501967 0.0473518
0.0298784 0.119516 0.0202695
0.0311408 0.118428 0.0194367
0.030951 0.118619 0.0194367
0.0325028 0.116918 0.0194367
0.0298784 0.119752 0.0181549
0.0304878 0.119089 0.0194367
-0.0168603 0.0534456 0.0497586
-0.00524565 0.130574 0.0194367
-0.0168603 0.159959 -0.00869017
-0.0168603 0.159825 -0.0101836
-0.063599 0.158946 -0.0163811
-0.0630562 0.157766 -0.0163694
-0.0634392 0.157766 -0.0149226
-0.0168603 0.0538461 0.0499757
-0.0168603 0.0545915 0.050186
-0.0168603 0.0576436 0.051159
0.0368472 0.111027 0.00338132
-0.063599 0.148206 0.0379211
-0.063599 0.149139 0.0374876
-0.063599 0.148643 0.0377522
0.00339513 0.111027 0.0421736
0.00372163 0.111027 0.0421395
0.00437788 0.111027 0.0419126
-0.0168603 0.123558 0.0297968
-0.0362037 0.111027 0.0359798
-0.0791483 0.15548 0.0194367
-0.0864782 0.153179 0.0194367
-0.0811035 0.154829 0.0194367
-0.0117654 0.129348 0.0194367
-0.0168603 0.128195 0.0180946
-0.0109359 0.129584 0.0194367
0.00456058 0.0642885 0.0564128
0.00344256 0.0642885 0.0566738
0.0038055 0.0642885 0.0566008
-0.0940918 0.119227 0.0194367
-0.093819 0.11829 0.0194367
-0.0927095 0.115758 0.0194367
0.0430987 0.0642885 0.0276811
0.051304 0.0642885 0.0285684
0.0173208 0.111027 0.0388669
0.0187157 0.111027 0.0385177
0.0150435 0.111027 0.0393908
-0.063599 0.151741 -0.00232573
-0.0340945 0.0642885 0.0398964
-0.0331057 0.0642885 0.0395493
-0.0319759 0.0642885 0.0389599
-0.0287156 0.0642885 0.0379632
-0.029441 0.0642885 0.0381001
-0.0143144 0.0642885 0.0535981
-0.0157273 0.0642885 0.0534708
-0.0168603 0.0605911 0.0519816
-0.0168603 0.0625368 0.0521225
-0.00824608 0.0642885 0.05602
-0.00752243 0.0642885 0.0562035
0.0470061 0.0642885 0.0289535
0.0441946 0.0642885 0.0280162
-0.0522471 0.0642885 0.0339031
-0.0406522 0.0642885 0.0414622
-0.041852 0.0642885 0.0412362
-0.0434368 0.0642885 0.0404906
-0.0377125 0.0642885 0.0415181
-0.0364679 0.0642885 0.0414128
-0.0278771 0.0642885 0.0382798
-0.02734 0.0642885 0.038554
-0.0264723 0.0642885 0.039425
-0.013775 0.0642885 0.053922
-0.0125286 0.0642885 0.0545806
-0.000555244 0.0642885 0.0565529
-0.00243854 0.0642885 0.0566421
-0.00155981 0.0642885 0.0567591
0.00839391 0.0642885 0.0549952
0.00979763 0.0642885 0.054546
0.0298784 0.118203 0.0256059
0.0241813 0.12446 0.0194367
0.02428 0.124388 0.0194367
0.0240444 0.124542 0.0194367
-0.063599 0.0673941 0.0338408
-0.063599 0.0683224 0.0349908
-0.0656569 0.157766 -0.00988904
-0.0666927 0.157766 -0.00822804
-0.063599 0.153159 -0.00808553
-0.063599 0.156385 -0.0124299
-0.0168603 0.0705212 0.0547002
-0.0172796 0.0642885 0.0520832
-0.0168603 0.0645153 0.0525015
-0.0168603 0.065955 0.0532698
0.0488363 0.0642885 0.0290913
0.0497659 0.0642885 0.0290403
0.0420199 0.0642885 0.0284509
-0.0168603 0.0711149 0.0548651
-0.0168603 0.0716225 0.0549543
-0.0168603 0.105205 -0.022503
0.0469556 0.0718235 0.0194367
0.0460154 0.0733624 0.0194367
-0.0168603 0.0748376 0.0554721
-0.063599 0.176754 -0.0552456
-0.0273822 0.093268 -0.0273019
-0.0287912 0.0917874 -0.0273019
-0.0254318 0.0943785 -0.0273019
-0.0884655 0.101843 0.0194367
-0.0168603 0.117416 0.0364984
-0.0168603 0.118089 0.0359958
-0.063599 0.16724 -0.039527
-0.063599 0.168342 -0.0437488
0.0298784 0.118124 0.0258864
-0.0168603 0.0776979 0.0562767
-0.0168603 0.0791634 0.0570103
-0.0168603 0.0772059 0.0561103
-0.063599 0.0806745 0.0433628
-0.063599 0.0776657 0.0416388
-0.0168603 0.119679 0.0350577
0.00661284 0.131113 0.0194367
0.00575486 0.131187 0.0194367
-0.0480205 0.157766 0.00892386
-0.0509855 0.157766 0.00967231
-0.0513849 0.157766 0.00960601
-0.0783259 0.155632 0.0194367
-0.0753868 0.156 0.0194367
-0.0168603 0.0806961 0.0574568
-0.063599 0.0815355 0.0437397
-0.0867035 0.153088 0.0194367
-0.0100814 0.111027 0.0423209
-0.063599 0.156586 -0.0128365
-0.0645777 0.157766 -0.0126823
-0.0318779 0.125241 0.0194367
-0.0277886 0.124031 0.0194367
-0.0168603 0.0835923 0.0573871
0.0406021 0.10356 0.0194367
0.0420876 0.10023 0.0194367
0.0384762 0.1083 0.0194367
0.0397205 0.106081 0.0194367
0.0371339 0.111027 0.0170667
-0.0334507 0.125594 0.0194367
-0.0372614 0.12644 0.0194367
-0.0168603 0.0862525 0.0571293
-0.0168603 0.0878725 0.0563685
-0.0168603 0.126747 0.0232648
-0.0177169 0.127542 0.0194367
-0.0229233 0.12558 0.0194367
-0.0703879 0.157766 -0.00310855
-0.068546 0.157766 -0.0049525
-0.0711118 0.157766 -0.00274702
-0.063599 0.0817397 0.0437893
-0.063599 0.0823595 0.0439786
0.0298784 0.11774 0.0264343
0.0348257 0.111027 0.0270957
-0.0289725 0.0915564 -0.0273019
0.0432059 0.097667 0.0194367
0.0437758 0.0957756 0.0194367
-0.0752927 0.168794 -0.0273019
-0.063599 0.0886091 0.0451658
-0.063599 0.0906107 0.0450002
-0.0168603 0.120717 0.0338325
-0.000278341 0.130965 0.0194367
0.00187026 0.131105 0.0194367
-0.0390242 0.111027 0.0361273
-0.0420388 0.111027 0.0370426
-0.0366475 0.111027 0.0361148
-0.0168603 0.128268 0.00794954
-0.0168603 0.128589 0.01325
-0.0168603 0.128247 0.0175178
-0.0168603 0.0939204 0.0539563
-0.0168603 0.0959842 0.0515823
-0.0168603 0.0927284 0.0548036
-0.063599 0.0931988 0.044317
-0.063599 0.0918945 0.0447606
-0.063599 0.0961885 0.0432857
-0.0168603 0.0914873 0.055372
0.0363555 0.111027 0.0227999
0.0368735 0.111027 0.0192185
0.0368953 0.110947 0.0194367
0.0364999 0.111027 0.0216096
0.03486 0.113884 0.0194367
-0.0168603 0.128037 0.0188543
-0.0163618 0.128056 0.0194367
-0.063599 0.0978275 0.0424981
0.0357614 0.111027 0.000287983
-0.0168603 0.128146 0.00645525
-0.0168603 0.128043 0.00552021
-0.0567984 0.0642885 0.0324232
-0.0555962 0.0642885 0.0328778
0.017859 0.127606 0.0194367
0.0163716 0.128361 0.0194367
-0.063599 0.0992301 0.042138
-0.063599 0.102107 0.0418631
-0.0589007 0.111027 0.0368698
-0.063599 0.106519 0.0395234
-0.0168603 0.103194 0.0435157
-0.0168603 0.104833 0.0427189
0.0443018 0.0932897 0.0194367
0.0445181 0.0918091 0.0194367
-0.0168603 0.103015 0.0436127
-0.0168603 0.103099 0.0435732
0.0349225 0.111027 0.0269112
0.0340335 0.115125 0.0194367
-0.063599 0.152816 -0.0075786
-0.063599 0.152516 -0.00534355
-0.0198411 0.111027 0.0401435
-0.00451502 0.111027 0.0424886
0.0123919 0.129907 0.0194367
0.0110129 0.13039 0.0194367
-0.0201669 0.111027 0.0400918
-0.0194721 0.111027 0.040191
0.018336 0.127339 0.0194367
-0.06982 0.111027 0.0435366
-0.0619725 0.111027 0.0371238
-0.0611888 0.111027 0.0369749
-0.063599 0.109833 0.0375523
-0.0624455 0.111027 0.0373228
-0.063599 0.110792 0.0373904
-0.0292232 0.111027 0.0370058
0.0113308 0.111027 0.039419
0.00978211 0.111027 0.0396357
0.0122952 0.111027 0.0394014
0.0213345 0.111027 0.0377028
-0.0524219 0.111027 0.036975
-0.0577569 0.111027 0.0370104
-0.0502426 0.111027 0.0369224
-0.0551542 0.111027 0.0369442
-0.0479282 0.111027 0.0370815
-0.0423596 0.111027 0.0370389
-0.00372986 0.111027 0.0423584
0.0137021 0.111027 0.0395461
0.0198702 0.111027 0.0381496
-0.0355323 0.111027 0.0360864
-0.0777467 0.157766 -0.0167633
-0.0779674 0.157766 -0.0194631
-0.07793 0.157766 -0.019625
-0.0921405 0.114564 0.0194367
-0.063599 0.13376 -0.00791677
-0.063599 0.130991 -0.00830023
0.0298784 0.114043 0.030998
-0.063599 0.145753 0.0383371
-0.0168603 0.042499 0.0521758
-0.0168603 0.0401953 0.0520814
-0.0168603 0.0420657 0.0521902
-0.0168603 0.171943 -0.016788
0.0298784 0.044756 0.0322767
0.0298784 0.0471921 0.0346848
0.0298784 0.0439614 0.0313969
0.0298784 0.0436732 0.0309627
-0.063599 0.0818726 -0.0191309
-0.0168603 0.169704 -0.0153882
-0.0168603 0.173288 -0.0172109
-0.063599 0.152552 0.0345868
-0.063599 0.150974 0.0364467
0.0298784 0.104797 0.0365539
0.0298784 0.106464 0.0361828
-0.0168603 0.168705 -0.0147502
-0.0168603 0.166727 -0.0128106
-0.0450564 0.157766 0.00710617
-0.0474465 0.157766 0.00870048
-0.0168603 0.161208 -0.00764349
-0.0168603 0.180369 -0.0192456
-0.047467 0.157766 0.00873338
0.0298784 0.0493387 0.0360403
0.0298784 0.0500198 0.0365596
0.0298784 0.0495393 0.0362026
0.0298784 0.100077 0.0400999
-0.0440538 0.157766 0.00596259
-0.043152 0.157766 0.00500947
0.0562649 0.0508295 0.0194367
0.0575522 0.0526274 0.0194367
-0.0411951 0.157766 0.00455812
-0.0423262 0.157766 0.00500991
0.0298784 0.0539691 0.0385509
-0.0404231 0.157766 0.00430284
-0.0385665 0.157766 0.00489502
-0.047547 0.157766 0.00878382
0.0298784 0.0559652 0.0398947
0.0302388 0.111027 0.0330899
0.0345065 0.111027 0.0276094
0.0298784 0.11319 0.0318406
-0.0729315 0.0642885 0.0171145
-0.0747644 0.0675391 0.0194367
-0.0725905 0.0642885 0.0143159
-0.0767842 0.0692887 0.0194367
0.0298784 0.0572034 0.0403664
-0.0168603 0.162942 -0.00861398
-0.0168603 0.164221 -0.0105068
-0.063599 0.135534 0.0383663
-0.063599 0.13767 0.0380202
0.0298784 0.0584779 0.0408471
0.0298784 0.0617178 0.0413353
0.0355391 0.0642885 0.0382607
0.0341145 0.0642885 0.0395344
-0.063599 0.119407 0.0465389
-0.063599 0.121735 0.0468879
-0.063599 0.12442 0.0463305
0.0360413 0.0642885 0.0377013
0.0387488 0.0642885 0.0339835
0.0596009 0.0592115 0.0194367
0.0586542 0.0642885 0.0226339
0.0597682 0.0642885 0.0200946
0.0207008 0.0642885 0.0475467
0.0298784 0.0628089 0.0417288
0.0117153 0.0642885 0.0529704
0.0117432 0.0642885 0.0529568
0.0137889 0.0642885 0.0521996
0.0201707 0.0642885 0.0479099
0.0169761 0.0642885 0.0503076
0.0189587 0.0642885 0.0489045
0.0180837 0.0642885 0.0494763
0.018649 0.0642885 0.0491233
0.0210097 0.0642885 0.0474296
0.0213907 0.0642885 0.0471283
0.0334277 0.0642885 0.0398884
0.0298784 0.0634238 0.0418059
0.0307896 0.0642885 0.0411461
0.0394871 0.0642885 0.0326782
0.0560199 0.0642885 0.026026
0.0580502 0.0642885 0.0236825
0.011618 0.0642885 0.0530799
0.0245758 0.0642885 0.045003
0.0402174 0.0642885 0.03108
-0.063599 0.13283 0.0401211
-0.063599 0.134277 0.0391923
0.0525727 0.0642885 0.0280431
0.0544297 0.0642885 0.0272591
-0.0168603 0.181629 -0.0195422
0.0413014 0.0642885 0.0288481
0.0407338 0.0642885 0.0296267
-0.0168603 0.161376 -0.00772919
-0.0168603 0.162446 -0.0082653
-0.063599 0.145286 0.0383381
-0.0168603 0.161028 -0.00773741
0.027234 0.0642885 0.0439001
0.0276439 0.0642885 0.0436813
0.0282885 0.0642885 0.0433295
0.0298784 0.0660058 0.0422109
0.0278555 0.0642885 0.0435625
0.0298784 0.100308 0.0399521
0.0298784 0.0981622 0.040968
-0.063599 0.127072 0.0448525
-0.063599 0.129657 0.0424613
-0.063599 0.12527 0.0460876
-0.0168603 0.185004 -0.0192409
-0.0168603 0.183648 -0.0194953
-0.0168603 0.185527 -0.0193117
-0.0319872 0.157766 0.00215058
-0.0311414 0.157766 0.00167845
-0.030822 0.157766 0.00141515
-0.063599 0.115436 0.0418804
-0.063599 0.114502 0.0405469
-0.063599 0.11433 0.0401374
0.0298784 0.0708447 0.04147
0.0298784 0.0714028 0.0416287
0.0298784 0.0711396 0.0414877
0.0298784 0.102211 0.0379659
0.0298784 0.0741274 0.0431577
0.0298784 0.094619 0.0424302
0.0298784 0.0767992 0.0440231
0.0298784 0.0778239 0.044038
-0.0229097 0.157766 -0.004222
-0.0168603 0.103808 -0.0229999
-0.0168603 0.105827 -0.0224239
-0.085025 0.111027 0.00383189
-0.0836903 0.111027 0.00241979
0.0371772 0.111027 0.0164338
-0.063599 0.118399 0.0460863
0.0298784 0.0795285 0.0440863
0.0298784 0.0807963 0.0440266
-0.063599 0.112405 0.0375703
-0.0644581 0.111027 0.0374804
-0.063599 0.112357 0.0375421
0.0298784 0.083884 0.0432128
0.0298784 0.0876874 0.0433753
-0.0355474 0.157766 0.00385318
-0.0382051 0.157766 0.00470464
0.0223962 0.111027 0.0374475
-0.0212873 0.157766 -0.00656509
0.0298784 0.0938834 0.0428119
0.0298784 0.0926293 0.0428763
0.0298784 0.109845 0.0342827
0.0278789 0.111027 0.0352492
0.0233995 0.111027 0.0370758
-0.0668461 0.111027 0.0384677
-0.0698155 0.111027 0.0435315
-0.063599 0.142521 0.0383678
-0.063599 0.142576 0.0383627
-0.063599 0.1426 0.0383531
-0.0168603 0.177088 -0.0183761
0.0298784 0.110202 0.0340216
0.0294201 0.111027 0.0338377
-0.063599 0.139217 0.0383566
-0.0168603 0.176168 -0.0182363
0.0298784 0.0894167 0.0435254
-0.0646072 0.111027 0.0376067
-0.063599 0.124998 0.0462792
-0.0271772 0.157766 -0.000608824
-0.0617308 0.157766 -0.0321326
-0.0620622 0.157766 -0.0347122
-0.0103848 0.179801 -0.0273019
-0.00899049 0.175792 -0.0273019
-0.0105011 0.180186 -0.0273019
-0.063599 0.120406 -0.00878919
-0.063599 0.119818 -0.00893147
-0.0622013 0.157766 -0.0188702
-0.0621475 0.157766 -0.0194835
-0.07732 0.111027 -0.00464435
-0.0805314 0.111027 -0.00137385
0.0551358 0.0490902 0.0194367
0.050241 0.0450153 0.0194367
-0.0168603 0.0363686 0.0520124
0.0554121 0.0493244 0.0194367
-0.063599 0.159725 -0.0543994
-0.063599 0.159739 -0.051567
-0.0168603 0.159967 -0.0107371
0.0298784 0.0484122 -0.0083852
0.0298784 0.0462575 -0.00700291
0.0298784 0.047415 -0.00743911
0.0298784 0.0479108 -0.00770329
-0.0617669 0.157766 -0.0292725
-0.0614483 0.157766 -0.0266211
-0.061515 0.15869 -0.0273019
-0.0617999 0.160379 -0.0273019
-0.00862457 0.174706 -0.0273019
-0.0615476 0.156697 -0.0273019
-0.0623515 0.152401 -0.0273019
0.0582843 0.0542979 0.0194367
-0.0393708 0.0336189 -0.0273019
0.0298784 0.0504739 -0.013962
0.0298784 0.0508045 -0.0143004
-0.00862467 0.174622 -0.0273019
-0.00952014 0.172037 -0.0273019
0.0298784 0.0529969 -0.0164989
-0.0615315 0.157766 -0.0259841
-0.061529 0.157766 -0.0241934
-0.0624601 0.162023 -0.0273019
-0.063599 0.163087 -0.0249796
-0.0947465 0.123887 0.0194367
-0.063599 0.155469 -0.0387376
-0.0629918 0.157766 -0.0399285
-0.063599 0.154536 -0.0374039
-0.063599 0.153884 -0.0363827
0.0592538 0.0572412 0.0194367
0.0608302 0.0642885 0.0154298
0.0298784 0.054451 -0.0168028
0.0298784 0.0575356 -0.0172867
-0.0168603 0.0940454 -0.0340138
-0.0168603 0.0955274 -0.0317898
-0.0650448 0.0642885 0.027581
-0.063599 0.066348 0.0324274
0.0600865 0.0642885 0.018778
0.0600258 0.0658217 0.0194367
0.0607791 0.0642885 0.0160976
0.0298784 0.0580749 -0.017546
0.0298784 0.0576171 -0.0172743
0.0581802 0.0642885 0.00355626
0.0571405 0.0642885 0.00193728
0.0600567 0.0642885 0.00797843
0.0592425 0.0642885 0.00544926
0.0372512 0.0642885 -0.0121389
0.0298784 0.0607621 -0.0192702
-0.061596 0.157766 -0.0229964
-0.0616037 0.157766 -0.0227004
-0.063599 0.0625652 0.0250573
-0.0680272 0.0617999 0.0194367
-0.063599 0.0627975 0.0256689
-0.063599 0.0637572 0.0274496
-0.0630694 0.0642885 0.0287964
-0.0667346 0.0642885 0.0258074
-0.0523819 0.14789 0.0194367
-0.0523273 0.148559 0.0194367
-0.0524095 0.148802 0.0194367
0.0610291 0.0642885 0.0117134
0.0610304 0.0642885 0.0115165
0.0412889 0.0642885 -0.00393431
0.0411761 0.0642885 -0.00435598
0.0417723 0.0642885 -0.00306485
0.0359013 0.0642885 -0.0134786
0.0350989 0.0642885 -0.0143314
0.0298784 0.0622843 -0.0195195
0.0322607 0.0642885 -0.0182413
0.033743 0.0642885 -0.0164592
0.0280466 0.0642885 -0.0209971
0.0265305 0.0642885 -0.0223286
0.0246497 0.0642885 -0.0235871
-0.052598 0.145011 0.0194367
-0.052341 0.143181 0.0194367
0.0600367 0.065975 0.0194367
0.0600154 0.0660571 0.0194367
0.0298784 0.0626105 -0.0195986
0.0314407 0.0642885 -0.0188487
0.029234 0.0642885 -0.0198515
0.0393299 0.0642885 -0.00882311
0.0298784 0.0658285 -0.019522
-0.0735871 0.154777 -0.0273019
-0.063599 0.174812 -0.0531899
-0.063599 0.171632 -0.0498015
-0.063599 0.170299 -0.0472152
0.0395933 0.0642885 -0.00845352
0.0397163 0.0642885 -0.00820739
0.0298784 0.0679483 -0.0196739
-0.0713971 0.147357 -0.0273019
-0.0168603 0.123238 -0.0068086
-0.0168603 0.121507 -0.0088704
-0.00863062 0.174729 -0.0273019
-0.063599 0.166597 -0.0369484
-0.063599 0.165409 -0.0329547
-0.063599 0.16473 -0.0304531
-0.064608 0.165344 -0.0273019
0.0583564 0.0696667 0.0194367
-0.0859572 0.108793 0.0194367
-0.0865715 0.110078 0.0194367
0.0298784 0.0693055 -0.0203947
0.0298784 0.0730176 -0.0214358
-0.0464365 0.132585 0.0194367
-0.0508765 0.139796 0.0194367
-0.0497455 0.137543 0.0194367
-0.0464919 0.132678 0.0194367
-0.0758365 0.111027 -0.00680198
-0.0862738 0.106373 0.0194367
-0.0880995 0.102667 0.0194367
-0.0863549 0.105986 0.0194367
-0.0624739 0.157766 -0.0381451
-0.063599 0.157319 -0.0414021
-0.0633829 0.157766 -0.0412929
-0.0838707 0.111027 0.0422258
-0.0811309 0.111027 0.0441213
-0.0868912 0.111027 0.00800328
-0.0908132 0.138813 0.0194367
-0.0908001 0.135514 0.0194367
-0.0911975 0.139955 0.0194367
-0.0882285 0.111027 0.0170592
-0.0884067 0.111027 0.0139152
-0.0518884 0.142261 0.0194367
-0.052918 0.151233 0.0194367
-0.0544105 0.153614 0.0194367
-0.0859383 0.108511 0.0194367
-0.072244 0.157766 -0.037163
-0.0718581 0.157766 -0.0400841
0.0460427 0.0792424 0.0194367
0.046103 0.0783863 0.0194367
0.0461135 0.0765084 0.0194367
-0.0168603 0.03587 0.051507
-0.072877 0.0642885 0.0173583
-0.0746465 0.0673761 0.0194367
-0.0727188 0.0642885 0.017675
-0.0725139 0.0650312 0.0194367
-0.0894812 0.093834 0.0194367
-0.0890091 0.0959505 0.0194367
-0.0874903 0.111027 0.00903817
-0.0872086 0.111027 0.00844299
-0.0947328 0.124053 0.0194367
-0.0941059 0.126862 0.0194367
-0.063599 0.166761 -0.0382585
-0.063599 0.17932 -0.0589366
-0.063599 0.178844 -0.0599041
-0.063599 0.178461 -0.0606177
-0.063599 0.177655 -0.0563926
-0.0322458 0.125271 0.0194367
-0.0245634 0.124916 0.0194367
-0.0675486 0.156302 0.0194367
-0.0133286 0.18423 -0.0273019
-0.0116433 0.182969 -0.0273019
-0.063599 0.15292 0.0341206
-0.063599 0.155787 0.0104921
-0.046423 0.13256 0.0194367
-0.0577964 0.157766 0.00679198
-0.0580247 0.157766 0.00631887
-0.0135997 0.184385 -0.0273019
-0.063599 0.154168 0.0309049
-0.0867258 0.110426 0.0194367
-0.0846324 0.111027 0.026933
-0.0845743 0.111027 0.027305
-0.0849342 0.111027 0.0258646
-0.063599 0.154738 0.0291096
-0.063599 0.155119 0.0277146
-0.0440268 0.126711 0.0194367
-0.0436344 0.126412 0.0194367
-0.0168603 0.186082 -0.0236219
-0.0882017 0.111027 0.0131585
-0.0916802 0.148473 0.0194367
-0.0168603 0.187224 -0.0207527
-0.0168603 0.18733 -0.0209229
-0.0168603 0.187332 -0.021108
-0.0168603 0.187035 -0.0217077
-0.0168603 0.0965612 0.0508676
-0.086872 0.15299 0.0194367
-0.0443921 0.128481 0.0194367
-0.0422963 0.126147 0.0194367
-0.0544795 0.153701 0.0194367
-0.0544265 0.153654 0.0194367
-0.00479074 0.130619 0.0194367
0.0298784 0.119234 0.00392335
0.0341304 0.111027 -0.00472267
0.0298784 0.117512 -0.00116801
-0.0885916 0.101361 0.0194367
-0.089136 0.0977094 0.0194367
-0.0767971 0.111027 -0.00519301
-0.0250115 0.124765 0.0194367
-0.0662194 0.156261 0.0194367
-0.063599 0.156103 0.0162113
-0.0716181 0.156334 0.0194367
-0.0638301 0.156132 0.0194367
-0.063599 0.15612 0.0196737
-0.063599 0.156072 0.0130843
-0.0695385 0.169342 -0.0273019
-0.063599 0.156122 0.0224182
-0.063599 0.155774 0.0247223
-0.0734294 0.157766 -0.00398738
-0.0736706 0.157766 -0.00421949
0.0548293 0.0724899 0.0194367
0.0514833 0.0728934 0.0194367
-0.0891877 0.090101 0.0194367
-0.0895639 0.0928118 0.0194367
-0.0807717 0.111027 -0.000952101
-0.0464015 0.132529 0.0194367
0.0372199 0.111027 0.00661374
0.037243 0.111027 0.0148312
0.0373497 0.111027 0.00905855
0.0342593 0.111027 -0.00433184
-0.0614886 0.155996 0.0194367
-0.0448245 0.129588 0.0194367
-0.0691777 0.169123 -0.0273019
-0.0651387 0.166118 -0.0273019
-0.0236281 0.125206 0.0194367
-0.0726531 0.156326 0.0194367
0.0579056 0.0701818 0.0194367
0.0551148 0.0723466 0.0194367
-0.0699684 0.169419 -0.0273019
-0.0724568 0.169968 -0.0273019
0.0512792 0.0729125 0.0194367
-0.0575047 0.155289 0.0194367
-0.057562 0.155302 0.0194367
0.0510988 0.0728935 0.0194367
-0.0406793 0.126427 0.0194367
-0.0577469 0.155348 0.0194367
-0.0828166 0.111027 0.000703909
-0.0880391 0.111027 0.01811
-0.0871475 0.110846 0.0194367
-0.087118 0.111027 0.0200046
-0.0745248 0.169114 -0.0273019
-0.00549029 0.130549 0.0194367
-0.0560583 0.157766 0.008648
-0.0563451 0.157766 0.00848325
0.0298784 0.119908 0.00718648
0.0503038 0.0726682 0.0194367
0.0472246 0.0716589 0.0194367
0.0459866 0.0736633 0.0194367
-0.0525591 0.157766 0.0097252
0.0298784 0.120038 0.010066
-0.0747936 0.149716 -0.0273019
-0.0748655 0.150685 -0.0273019
-0.0586028 0.157766 0.00431934
-0.068785 0.111027 -0.0111003
-0.0715337 0.111027 -0.0096413
-0.063599 0.0380322 0.042232
-0.063599 0.038362 0.0421502
-0.063599 0.0381647 0.024363
-0.063599 0.0358142 0.0423225
-0.0852079 0.0798745 0.0194367
-0.0834133 0.077264 0.0194367
-0.063599 0.0359598 0.0181883
-0.0622547 0.0367497 0.0194367
-0.063599 0.0360927 0.0180559
-0.063599 0.0374208 0.0171095
-0.063599 0.0357786 0.0183858
-0.0631912 0.0354016 0.0194367
-0.063599 0.0357851 0.018115
-0.0595978 0.0396792 0.0194367
-0.0615186 0.0378683 0.0194367
-0.063599 0.0355573 0.0222683
-0.0595639 0.0397081 0.0194367
-0.063599 0.0390142 0.0258611
-0.063599 0.0393719 0.0258339
-0.063599 0.0439803 0.0322977
-0.063599 0.0421275 0.0394013
-0.063599 0.0428378 0.0386359
-0.063599 0.0436391 0.0376002
-0.0595608 0.0397326 0.0194367
-0.063599 0.0417214 0.0141585
-0.063599 0.0420065 0.013839
-0.063599 0.0439363 0.0111355
-0.0168603 0.0993127 0.0442904
-0.063599 0.0456011 0.00881732
-0.063599 0.0458009 0.00846812
-0.063599 0.0458841 0.00819559
-0.0168603 0.0983773 0.0459517
-0.0168603 0.0973826 0.048668
-0.0168603 0.0986142 0.0455723
-0.077448 0.157766 -0.0140111
-0.0782879 0.164398 -0.0273019
-0.0763402 0.157766 -0.00895892
-0.0764477 0.157766 -0.00950747
-0.0773089 0.157766 -0.0133508
-0.0765134 0.157766 -0.0102762
-0.0889445 0.0887206 0.0194367
-0.0774833 0.157766 -0.0141257
-0.0508101 0.0538167 0.0194367
-0.0750613 0.157766 -0.00656691
-0.0511918 0.055047 0.0194367
-0.0509511 0.0543225 0.0194367
-0.0542013 0.0573684 0.0194367
-0.0520813 0.0562883 0.0194367
-0.0534363 0.0569346 0.0194367
-0.0524627 0.0565643 0.0194367
-0.0168603 0.0599936 0.0516797
-0.0546648 0.0575475 0.0194367
-0.0555885 0.0578583 0.0194367
-0.0736075 0.148582 -0.0273019
-0.0720163 0.147817 -0.0273019
-0.0453323 0.0642885 0.0394385
-0.0259734 0.0642885 0.0401274
-0.0249838 0.0642885 0.0414526
-0.0226477 0.0642885 0.0452934
-0.063599 0.0608984 0.0212368
-0.0479168 0.0642885 0.0369027
-0.0483678 0.0642885 0.0366488
-0.0487309 0.0642885 0.0364291
0.00511799 0.111027 -0.0201928
0.002888 0.111027 -0.0201281
-0.0201194 0.0642885 0.0493486
-0.0192808 0.0642885 0.0506648
-0.063599 0.134424 -0.00772726
-0.063599 0.135327 -0.00762266
-0.063599 0.13856 -0.00728129
-0.0390581 0.111027 -0.0182795
-0.0930441 0.13137 0.0194367
-0.063599 0.0358955 0.0229016
-0.063599 0.0364898 0.0240952
-0.0576353 0.0412352 0.0194367
-0.063599 0.0404147 0.0257859
-0.063599 0.0415962 0.0266867
-0.063599 0.0419341 0.0270395
-0.063599 0.044101 0.0316187
-0.0415599 0.0374902 -0.0273019
-0.0410105 0.0385008 -0.0273019
-0.0427273 0.0358196 -0.0273019
-0.0420097 0.0362368 -0.0273019
-0.0786202 0.163226 -0.0273019
-0.0783729 0.162496 -0.0273019
-0.0427375 0.035795 -0.0273019
-0.063599 0.0444805 -0.00173619
-0.063599 0.0451871 2.73704e-05
-0.074591 0.152022 -0.0273019
-0.0573783 0.0413998 0.0194367
-0.063599 0.0445179 0.0327393
-0.063599 0.0443033 0.0358546
-0.063599 0.0460575 0.00216578
-0.0930423 0.131373 0.0194367
-0.0930442 0.13137 0.0194367
-0.0543301 0.0435937 0.0194367
-0.0532926 0.044615 0.0194367
-0.0909808 0.134604 0.0194367
-0.063599 0.0941493 -0.0186804
-0.063599 0.092845 -0.0187097
-0.063599 0.0952624 -0.0184142
-0.0755616 0.159516 -0.0273019
-0.0767996 0.157766 -0.0223242
-0.0774421 0.157766 -0.0214709
-0.063599 0.0434168 -0.00377202
-0.063599 0.046429 0.00382934
-0.063599 0.0465007 0.00549208
-0.063599 0.046564 0.00452951
-0.052046 0.0457839 0.0194367
0.0206394 0.111027 -0.0151887
0.0172884 0.111027 -0.0163568
-0.0511177 0.047625 0.0194367
-0.0506829 0.0487822 0.0194367
-0.0506655 0.0497141 0.0194367
-0.0915206 0.114061 0.0194367
-0.0915234 0.145085 0.0194367
-0.0916794 0.148327 0.0194367
-0.0725827 0.157766 -0.0361276
0.0340697 0.111027 -0.00483859
0.033841 0.111027 -0.00524818
-0.0330029 0.111027 -0.0180222
-0.0276581 0.111027 -0.017954
-0.0258173 0.0532558 -0.0273019
-0.0234548 0.0481708 -0.0273019
-0.0729558 0.157766 -0.0343074
-0.0259274 0.0541443 -0.0273019
-0.026949 0.0569358 -0.0273019
-0.0168603 0.179057 -0.0256097
-0.0907697 0.134969 0.0194367
-0.0710313 0.157766 -0.0438387
-0.0269698 0.0571557 -0.0273019
-0.0284863 0.0613415 -0.0273019
-0.00455112 0.111027 -0.0212234
-0.0687096 0.0642885 -0.00146509
-0.063599 0.0618406 -0.00243282
-0.063599 0.0615187 -0.000514415
-0.063599 0.166788 -0.0605035
-0.063599 0.165614 -0.0602027
-0.0775138 0.157766 -0.0142466
-0.0168603 0.168653 -0.0211137
-0.0168603 0.166816 -0.0196315
-0.068821 0.157766 -0.053188
-0.0670465 0.157766 -0.0546071
-0.068256 0.157766 -0.0539434
-0.0273187 0.0642885 -0.0304514
-0.0251968 0.0642885 -0.032659
-0.0286833 0.0622886 -0.0273019
-0.0298198 0.0642885 -0.0264409
-0.0298892 0.0648292 -0.0273019
-0.030246 0.0642885 -0.0244139
-0.0304467 0.0642885 -0.023121
-0.0327811 0.0642885 -0.0170118
-0.0339898 0.0642885 -0.0147135
-0.0185167 0.0353042 -0.0273019
-0.0182658 0.0355736 -0.0273019
-0.0168603 0.0363791 -0.0270073
-0.0175804 0.0363634 -0.0273019
-0.0168603 0.0369054 -0.0271978
-0.0203012 0.034502 -0.0273019
-0.0196688 0.0345638 -0.0273019
-0.0686213 0.0642885 -0.0015929
-0.0688238 0.0642885 -0.0012168
-0.063599 0.0880661 -0.0190164
-0.0740464 0.15361 -0.0273019
-0.0749149 0.151409 -0.0273019
-0.0583157 0.157766 0.00312094
-0.028322 0.0642885 -0.0291404
-0.0295306 0.0642885 -0.0277705
-0.0310608 0.0642885 -0.0216104
-0.0323816 0.0642885 -0.0183602
-0.0319065 0.0642885 -0.0195805
0.0298784 0.0983496 -0.0162905
0.0298784 0.0955374 -0.0177523
-0.0696772 0.0642885 0.000980957
-0.0708586 0.0642885 0.00261541
-0.0542561 0.157766 -0.00208966
-0.0300288 0.0651306 -0.0273019
-0.063599 0.125571 -0.00882713
-0.0168603 0.183932 -0.0251019
-0.0168603 0.182458 -0.0256258
-0.01497 0.182566 -0.0273019
-0.0168603 0.180616 -0.0255935
-0.0305553 0.0682224 -0.0273019
-0.0248237 0.0642885 -0.0329222
-0.0307788 0.0693212 -0.0273019
-0.0315792 0.0712209 -0.0273019
-0.0168603 0.111828 -0.0193955
-0.0164342 0.111027 -0.019683
-0.0137246 0.111027 -0.0191273
-0.0168603 0.109456 -0.0201348
-0.0195433 0.111027 -0.0194063
-0.0168603 0.107963 -0.021348
-0.0809535 0.0745995 0.0194367
-0.0762533 0.160101 -0.0273019
-0.0735103 0.157766 -0.030073
-0.0750264 0.157766 -0.0248973
-0.0752162 0.159241 -0.0273019
-0.0744386 0.157766 -0.026535
-0.0748787 0.158768 -0.0273019
-0.0809904 0.0746867 0.0194367
-0.0819306 0.0758851 0.0194367
-0.0808528 0.0743794 0.0194367
-0.0709145 0.157766 -0.0443742
-0.0704676 0.157766 -0.0462657
-0.0712019 0.157766 -0.0424873
-0.0736301 0.15573 -0.0273019
-0.0916661 0.148523 0.0194367
0.0298784 0.0879969 -0.020525
-0.00099978 0.111027 -0.0201735
-0.000470305 0.111027 -0.0199795
-0.0335563 0.0765352 -0.0273019
-0.0326719 0.0747001 -0.0273019
-0.0335766 0.0766304 -0.0273019
0.00952506 0.111027 -0.0193158
0.0126108 0.111027 -0.0184126
0.0059726 0.111027 -0.0201439
-0.0782371 0.161617 -0.0273019
-0.0734235 0.157766 -0.0303082
-0.063599 0.174633 -0.0613615
-0.063599 0.176193 -0.0612512
-0.085894 0.0821348 0.0194367
-0.0854705 0.0802914 0.0194367
-0.0861585 0.0838214 0.0194367
-0.0915516 0.141363 0.0194367
0.0298784 0.117 -0.00261831
0.0298784 0.11214 -0.00895118
-0.0739995 0.157394 -0.0273019
-0.0331076 0.079345 -0.0273019
-0.086568 0.0847328 0.0194367
-0.0886493 0.0880227 0.0194367
-0.0548801 0.157766 -0.00122632
-0.0695534 0.157766 -0.0508272
0.0298784 0.0863919 -0.0205783
0.0298784 0.0904061 -0.0198279
0.0298784 0.0873435 -0.0205786
-0.0916348 0.143786 0.0194367
-0.0331807 0.0830709 -0.0273019
-0.0326082 0.0846851 -0.0273019
-0.031679 0.0866011 -0.0273019
-0.0313382 0.0872443 -0.0273019
-0.063599 0.169003 -0.0608742
-0.0736371 0.111027 -0.00835476
-0.0311621 0.0877809 -0.0273019
-0.0139484 0.0978757 -0.0273019
-0.0117921 0.0981628 -0.0273019
-0.0168603 0.10234 -0.0235397
-0.0168603 0.185603 -0.0242929
-0.0434635 0.111027 -0.0177194
0.000467797 0.0980424 -0.0273019
0.0546327 0.0642885 -8.72511e-05
-0.0168603 0.0354617 -0.0266874
-0.0168603 0.0362443 -0.0269509
-0.0238896 0.0952815 -0.0273019
-0.013775 0.184391 -0.0273019
-0.0146324 0.183427 -0.0273019
0.0541434 0.0642885 -0.000295709
0.0134986 0.111027 -0.0182117
0.0171164 0.0897345 -0.0273019
0.0181051 0.0878399 -0.0273019
-0.0575877 0.157766 0.00170139
-0.0556861 0.157766 -0.000374238
-0.0492659 0.111027 -0.017998
-0.0448785 0.111027 -0.0177675
-0.0471731 0.111027 -0.0174592
-0.063599 0.173053 -0.0614262
-0.0501372 0.111027 -0.0181466
-0.0555007 0.111027 -0.0174906
-0.063599 0.0417858 -0.00583246
-0.063599 0.0389596 -0.00726591
-0.063599 0.0410683 -0.00643881
-0.0348975 0.111027 -0.0185313
-0.0070347 0.111027 -0.0212824
-0.00914124 0.111027 -0.0208365
0.0298784 0.106714 -0.0126602
-0.063599 0.154576 0.00305803
-0.0538307 0.157766 -0.00251971
-0.0273123 0.0337698 -0.0273019
-0.0227188 0.0957343 -0.0273019
-0.0168603 0.0959259 -0.0310626
-0.0201127 0.096416 -0.0273019
-0.0160609 0.0974909 -0.0273019
-0.0168603 0.0985623 -0.0244073
-0.0168603 0.0981083 -0.0249388
-0.0168603 0.0999085 -0.024158
-0.063599 0.153595 0.00172317
-0.063599 0.152644 0.000264406
0.0145282 0.111027 -0.0177693
-0.0220983 0.111027 -0.0196133
-0.0149184 0.179962 -0.0273019
-0.0168603 0.112888 -0.0188995
0.0206704 0.111027 -0.0151738
0.0207608 0.111027 -0.0151167
0.0298784 0.0998317 -0.0160787
0.0298784 0.103709 -0.0147401
-0.063599 0.152224 -0.00179414
-0.0168603 0.123936 -0.00573002
-0.0421579 0.111027 -0.0179753
-0.0369433 0.111027 -0.0184937
0.0110458 0.094826 -0.0273019
0.0122634 0.0941842 -0.0273019
0.00994014 0.0955325 -0.0273019
-0.00222349 0.0982794 -0.0273019
-0.00404163 0.0984504 -0.0273019
4.52843e-05 0.0981427 -0.0273019
0.0245493 0.111027 -0.0126843
-0.063599 0.1174 -0.0098361
-0.063599 0.11562 -0.0113357
-0.063599 0.117969 -0.00962565
-0.0168603 0.0920601 -0.0358005
0.0132961 0.0934261 -0.0273019
0.0153563 0.0912302 -0.0273019
0.00220457 0.0976895 -0.0273019
0.00572464 0.0968634 -0.0273019
0.0298784 0.0939867 -0.0189395
0.0160469 0.0906182 -0.0273019
-0.0327763 0.0454634 -0.0273019
-0.0377917 0.042296 -0.0273019
-0.036073 0.0440117 -0.0273019
-0.0327029 0.0454877 -0.0273019
-0.0388968 0.0409028 -0.0273019
-0.0168603 0.125471 -0.00276111
-0.0168603 0.120439 -0.00999044
0.0321576 0.111027 -0.00769049
0.0298784 0.111741 -0.00948219
-0.0168603 0.11441 -0.0173279
-0.0126405 0.111027 -0.0194892
-0.0174076 0.0971037 -0.0273019
-0.0168603 0.0964772 -0.0294885
-0.0168603 0.0958542 -0.0312599
-0.0268689 0.111027 -0.0182741
-0.0168603 0.0909127 -0.0366565
-0.0168603 0.0876018 -0.0383784
-0.0168603 0.117419 -0.0149035
-0.0168603 0.11825 -0.0138336
-0.0246187 0.111027 -0.0189859
-0.0207851 0.111027 -0.0196605
0.0298784 0.0777164 -0.0212891
0.0298784 0.0822609 -0.0202443
0.0469347 0.0642885 -0.00162376
0.0441134 0.0642885 -0.00130385
0.0526213 0.0642885 -0.00112467
0.0509938 0.0642885 -0.00194295
-0.0168603 0.0915039 -0.0363463
-0.00625178 0.0985714 -0.0273019
-0.0626112 0.111027 -0.0148066
-0.063599 0.11405 -0.0124531
-0.0168603 0.116081 -0.0163185
-0.00780536 0.0985839 -0.0273019
-0.0427446 0.0357683 -0.0273019
0.0298784 0.10451 -0.0144321
0.0298784 0.105244 -0.013944
0.0298784 0.0824262 -0.0202256
-0.0168603 0.100931 -0.0237438
-0.0168603 0.127595 0.00323966
0.0437829 0.0642885 -0.00129715
-0.0168603 0.091285 -0.0364844
0.0298784 0.111686 -0.00952391
0.0305128 0.111027 -0.00937021
0.0298784 0.107574 -0.0119633
0.0298784 0.0925149 -0.0193493
-0.0168603 0.12589 -0.00153564
0.00127608 0.111027 -0.0201116
0.0290026 0.111027 -0.0105019
0.0296394 0.111027 -0.0101195
-0.042513 0.034139 -0.0273019
-0.041384 0.0338538 -0.0273019
0.0252343 0.111027 -0.0124699
-0.063599 0.178111 -0.0607123
-0.0168603 0.12569 -0.00220522
0.051266 0.0642885 -0.00184904
-0.0168603 0.0342928 -0.025516
-0.0268855 0.0340233 -0.0273019
-0.0243245 0.0342637 -0.0273019
-0.063599 0.0978894 -0.017354
-0.063599 0.100457 -0.0177992
-0.0355162 0.157766 -0.0115428
-0.0318199 0.157766 -0.0116335
-0.063599 0.0364165 -0.00815279
-0.063599 0.0339237 -0.00804217
0.0298784 0.038238 -0.00142067
-0.0168603 0.0409301 -0.0277641
-0.0151903 0.0406192 -0.0273019
-0.0168603 0.0436882 -0.0274953
-0.015957 0.0429388 -0.0273019
-0.063599 0.129415 -0.0083705
-0.063599 0.127378 -0.00850368
-0.00907785 0.0442408 -0.0273019
-0.011025 0.0444965 -0.0273019
-0.00786635 0.0442767 -0.0273019
-0.00992853 0.0443897 -0.0273019
0.0298784 0.0406804 -0.00371601
-0.063599 0.101845 -0.0178289
-0.063599 0.10447 -0.0170567
-0.063599 0.103164 -0.0176371
-0.00150259 0.0452654 -0.0273019
-0.00296223 0.0449167 -0.0273019
-0.00464884 0.0444156 -0.0273019
0.0298784 0.043597 -0.00537981
0.0298784 0.0391861 -0.0022219
-0.000985426 0.0454798 -0.0273019
0.00106746 0.0457939 -0.0273019
-0.0137585 0.0441689 -0.0273019
-0.0168603 0.0440718 -0.0274742
-0.0161701 0.0439482 -0.0273019
-0.0150382 0.0443 -0.0273019
-0.0168603 0.0452689 -0.0280842
-0.0259452 0.0459602 -0.0273019
-0.0233668 0.0464002 -0.0273019
-0.0282913 0.0461084 -0.0273019
-0.0235162 0.0480437 -0.0273019
0.0298784 0.0450879 -0.0061846
0.00997561 0.0482445 -0.0273019
0.00727321 0.0479391 -0.0273019
0.00664843 0.0476825 -0.0273019
0.00434291 0.0461912 -0.0273019
-0.0168603 0.0454696 -0.0281523
-0.0168603 0.0455481 -0.0281965
-0.0300093 0.0457448 -0.0273019
-0.0120461 0.173463 -0.0273019
-0.0101547 0.171904 -0.0273019
0.0110576 0.0485296 -0.0273019
0.0124191 0.0491769 -0.0273019
0.0142285 0.0511748 -0.0273019
-0.0142447 0.177324 -0.0273019
-0.0128661 0.174386 -0.0273019
0.0147642 0.0521654 -0.0273019
0.017069 0.0530231 -0.0273019
-0.0168603 0.0506186 -0.0312287
-0.0168603 0.170145 -0.0220008
-0.0168603 0.173392 -0.0238724
0.0199247 0.0543446 -0.0273019
0.0185991 0.0536244 -0.0273019
-0.0664814 0.157766 -0.0548488
-0.0666916 0.157766 -0.0548305
-0.0661554 0.157766 -0.0546068
-0.0663231 0.157766 -0.0547986
-0.063599 0.160334 -0.056746
0.0201532 0.0545783 -0.0273019
0.0202247 0.0550221 -0.0273019
0.0201128 0.0555102 -0.0273019
-0.0168603 0.0520981 -0.0318941
-0.0168603 0.0574458 -0.0345644
0.0184376 0.061022 -0.0273019
0.0187963 0.0642885 -0.0282325
-0.0168603 0.0586133 -0.0351211
-0.0200649 0.0642885 -0.0361313
-0.0168603 0.0596473 -0.0355432
-0.0459114 0.157766 -0.00835196
-0.047219 0.157766 -0.00756472
-0.0392231 0.157766 -0.0110016
-0.0378989 0.157766 -0.0111907
0.0242013 0.0642885 -0.0239085
0.0060012 0.0642885 -0.0324232
0.0013968 0.0642885 -0.0342936
0.00534491 0.0642885 -0.032796
-0.0201512 0.0642885 -0.0360961
-0.0225058 0.0642885 -0.0349392
0.000458085 0.0642885 -0.034422
-0.000992136 0.0642885 -0.0344036
-0.0019903 0.0642885 -0.0345692
-0.0112808 0.0642885 -0.0364051
-0.00811194 0.0642885 -0.035562
-0.00943664 0.0642885 -0.035796
-0.01997 0.0642885 -0.0361441
-0.0168603 0.0625141 -0.0361743
-0.0462432 0.0642885 -0.0138049
-0.0456303 0.0642885 -0.0138087
-0.0441755 0.0642885 -0.014103
-0.0423712 0.0642885 -0.0142144
0.0238116 0.0642885 -0.0241781
0.0189064 0.0642885 -0.0281784
0.0200804 0.0634021 -0.0273019
0.0219122 0.0642885 -0.0265553
0.0224876 0.0642885 -0.0258821
0.0139051 0.0642885 -0.0300013
0.0184672 0.0642885 -0.0283698
0.0145065 0.0642885 -0.0299291
-0.00445498 0.0642885 -0.0351075
-0.0196 0.0642885 -0.0362347
-0.0168603 0.0638239 -0.0367142
-0.0143237 0.0642885 -0.0371809
-0.0168603 0.0646987 -0.0371792
-0.016104 0.0642885 -0.0371617
-0.0151542 0.0642885 -0.037371
-0.0471883 0.0642885 -0.0133824
-0.0497788 0.0642885 -0.0118703
-0.0478553 0.0642885 -0.013154
-0.0485928 0.0642885 -0.012793
-0.0490057 0.0642885 -0.0125974
-0.0505402 0.0642885 -0.0113955
0.0100569 0.0642885 -0.031428
0.00877897 0.0642885 -0.0318586
-0.0168603 0.0661964 -0.0378517
-0.0348908 0.0642885 -0.0142191
-0.0354715 0.0642885 -0.014094
-0.0400468 0.0642885 -0.0138007
-0.040592 0.0642885 -0.0138981
-0.0541994 0.0642885 -0.00910337
-0.0511824 0.0642885 -0.010968
-0.0543701 0.0642885 -0.00881612
-0.0553967 0.0642885 -0.0081856
-0.0560463 0.0642885 -0.00792859
-0.0574573 0.0642885 -0.0076556
-0.0593836 0.0642885 -0.00716071
-0.0613519 0.0642885 -0.00654681
-0.0625329 0.0642885 -0.00602366
-0.063599 0.0620187 -0.00277302
-0.063599 0.0740802 0.0400035
0.0216004 0.066402 -0.0273019
-0.0168603 0.0664447 -0.0379285
-0.0421457 0.157766 -0.00974491
-0.0147158 0.178335 -0.0273019
-0.0168603 0.177646 -0.0254849
-0.0440321 0.157766 -0.00917038
-0.063599 0.111712 -0.0138645
-0.062626 0.111027 -0.0147987
-0.0622775 0.111027 -0.0149422
-0.063599 0.109275 -0.0147392
-0.0562361 0.111027 -0.0173739
0.0218133 0.0669149 -0.0273019
0.0217747 0.0692394 -0.0273019
-0.0642771 0.0642885 -0.00531578
-0.063599 0.0648645 -0.00630607
-0.063599 0.0679522 -0.0100633
-0.063599 0.0665969 -0.0080451
-0.0657845 0.0642885 -0.00439974
-0.0666717 0.0642885 -0.00360076
-0.063599 0.106843 -0.0155823
-0.0657288 0.111027 -0.0126036
0.0212776 0.0720544 -0.0273019
-0.063599 0.0748754 0.0404767
-0.0783197 0.0704122 0.0194367
-0.0168603 0.0737438 -0.0390105
-0.063599 0.0693875 -0.0120417
-0.063599 0.071663 -0.0143458
-0.0791198 0.0712037 0.0194367
-0.0168603 0.0730406 -0.0388105
-0.063599 0.162369 -0.0586384
-0.063599 0.160408 -0.0568271
-0.063599 0.0727599 -0.0154941
0.0213251 0.0725531 -0.0273019
0.0208106 0.0738948 -0.0273019
-0.063599 0.0731501 -0.0157972
0.0298784 0.075376 -0.0216196
0.0198541 0.0765581 -0.0273019
0.0199234 0.0776031 -0.0273019
-0.0168603 0.0761688 -0.0390162
-0.063599 0.0757719 -0.0175235
-0.063599 0.0757838 -0.0175267
-0.0168603 0.0794137 -0.0387568
-0.0496531 0.157766 -0.00585137
-0.0531883 0.157766 -0.00308365
-0.0168603 0.0809638 -0.0392664
-0.0168603 0.0849828 -0.0390983
-0.063599 0.0818073 -0.019124
-0.063599 0.082138 -0.0191439
-0.0515963 0.0642885 0.034452
-0.0507531 0.0642885 0.0347314
0.0201117 0.0798177 -0.0273019
0.0200474 0.0815305 -0.0273019
-0.0680526 0.0618129 0.0194367
-0.0683291 0.0642885 0.0241517
-0.0679478 0.0617689 0.0194367
-0.063599 0.163261 -0.059195
0.019711 0.0850996 -0.0273019
-0.0168603 0.0852496 -0.0390639
-0.0168603 0.0856921 -0.0389592
-0.063599 0.0855813 -0.0191352
-0.0168603 0.17346 -0.0238923
-0.070491 0.0630427 0.0194367
-0.0695026 0.0642885 0.0229573
-0.0705422 0.0630864 0.0194367
-0.0710802 0.0642885 0.0206888
-0.0283892 0.03348 -0.0273019
-0.0300101 0.0335238 -0.0273019
-0.0402015 0.033736 -0.0273019
-0.0331483 0.0336059 -0.0273019
-0.0316977 0.0335981 -0.0273019
-0.0168603 0.033579 -0.0245631
-0.0168603 0.0336991 -0.0228318
-0.0364803 0.0335651 -0.0273019
-0.0352558 0.0335881 -0.0273019
-0.0355227 0.0335885 -0.0273019
-0.0168603 0.033801 -0.0211172
-0.0168603 0.0343093 -0.0197426
-0.0168603 0.0345226 -0.0192119
-0.0168603 0.035254 -0.0187704
-0.0168603 0.037712 -0.0172694
-0.0168603 0.0385786 -0.0160729
-0.0168603 0.0387067 -0.0158701
-0.0168603 0.0387769 -0.0104588
-0.0168603 0.0387869 -0.0101846
-0.0168603 0.0387591 -0.00921126
0.0298784 0.0376243 -0.000543983
0.0298784 0.0364365 0.00216156
0.0298784 0.0359256 0.00348658
0.0298784 0.0352486 0.00599115
0.0298784 0.0352289 0.00607803
-0.063599 0.0337615 -0.00811403
-0.063599 0.0337562 -0.00802741
0.0126748 0.0348028 0.0194367
0.0135077 0.0345876 0.0194367
0.0144428 0.0346437 0.0194367
-0.063599 0.0337078 -0.00742426
0.0298784 0.0349871 0.00997754
-0.0789592 0.111027 0.0450756
-0.0168603 0.0385865 -0.0038669
-0.0168603 0.0384292 -0.00153406
-0.0168603 0.038393 0.0035839
0.0298784 0.0349485 0.0110877
0.0298784 0.0350546 0.0135485
0.0349631 0.0375442 0.0194367
-0.063599 0.033402 -0.00376298
-0.063599 0.0333546 -0.00279635
0.0298784 0.0351888 0.0154015
0.0298784 0.0355819 0.0171698
0.0292319 0.0359072 0.0194367
0.0341214 0.0372751 0.0194367
-0.063599 0.0336456 0.00779815
-0.0168603 0.0383607 0.0052169
-0.0168603 0.0383406 0.00691341
0.00383154 0.0345792 0.0194367
0.0217963 0.0347197 0.0194367
0.0238942 0.0348982 0.0194367
0.040213 0.039674 0.0194367
0.0357295 0.0378508 0.0194367
0.0413769 0.0402718 0.0194367
0.042944 0.0409302 0.0194367
0.0439684 0.0414792 0.0194367
0.0443933 0.041689 0.0194367
0.048828 0.0439273 0.0194367
0.0473069 0.0431076 0.0194367
0.00709972 0.0343108 0.0194367
0.0200299 0.0354521 0.0194367
0.0213699 0.0350262 0.0194367
0.0288656 0.035806 0.0194367
0.0264319 0.0351733 0.0194367
0.0298784 0.0362193 0.0200246
0.0298784 0.0366124 0.0211881
-0.0168603 0.0382918 0.00989608
-0.012406 0.0383196 0.0194367
-0.00742543 0.0384499 0.0194367
0.00691995 0.0342991 0.0194367
0.00426664 0.0345458 0.0194367
0.007245 0.0343961 0.0194367
0.00898866 0.0347784 0.0194367
0.0109021 0.0347327 0.0194367
0.0101136 0.0347568 0.0194367
0.0188629 0.0359954 0.0194367
0.0184765 0.0359487 0.0194367
-0.0531972 0.0332559 0.0194367
-0.0432135 0.0346793 0.0194367
-0.0426849 0.0345853 0.0194367
-0.00170465 0.0382613 0.0194367
0.0010921 0.0356617 0.0194367
0.00308854 0.0346545 0.0194367
0.00174475 0.035333 0.0194367
-0.0406534 0.0349031 0.0194367
-0.0168603 0.0382814 0.0124477
-0.0140263 0.038267 0.0194367
-0.00181728 0.0383791 0.0194367
-0.00583308 0.0384242 0.0194367
-0.00180351 0.0383705 0.0194367
0.0298784 0.0379187 0.024606
0.0298784 0.0388531 0.0259608
-0.063599 0.0336881 0.008576
-0.0391205 0.0350626 0.0194367
-0.0168603 0.0382387 0.0152738
-0.0193411 0.0381573 0.0194367
-0.063599 0.0339332 0.013338
-0.063599 0.0340005 0.0146286
-0.0314023 0.0340827 0.0194367
-0.0271276 0.0377195 0.0194367
-0.0202851 0.0381258 0.0194367
-0.0244207 0.0380185 0.0194367
-0.0168603 0.0382381 0.0178115
-0.0184111 0.0381874 0.0194367
-0.0150799 0.0382858 0.0194367
-0.0305901 0.0346866 0.0194367
-0.0340604 0.0339586 0.0194367
-0.029776 0.0350421 0.0194367
-0.0288159 0.0366587 0.0194367
-0.028152 0.0376318 0.0194367
0.0298784 0.0395202 0.0273356
-0.063599 0.0340037 0.0147653
-0.063599 0.0340141 0.0148425
-0.054368 0.0337362 0.0194367
-0.0549044 0.0336445 0.0194367
-0.0534155 0.0331835 0.0194367
-0.0538149 0.0335573 0.0194367
-0.036258 0.0355936 0.0194367
-0.0362148 0.0355899 0.0194367
-0.0363141 0.035557 0.0194367
-0.0343578 0.033954 0.0194367
-0.0344142 0.0340063 0.0194367
0.0298784 0.0402509 0.0283386
-0.063599 0.0343917 0.0169307
-0.0168603 0.0382275 0.0213494
-0.0168603 0.0383457 0.024527
0.0298784 0.0413385 0.0295668
-0.0527625 0.0642885 0.0335096
-0.0595074 0.0642885 0.031223
-0.0598675 0.0339765 0.0194367
-0.0590701 0.0338601 0.0194367
-0.0596592 0.0338902 0.0194367
-0.0594497 0.03388 0.0194367
-0.0753216 0.111027 0.0456429
-0.0733369 0.111027 0.0457912
-0.0698265 0.111027 0.0435415
-0.0859509 0.111027 0.0366295
-0.0840416 0.111027 0.0323874
-0.061969 0.0343472 0.0194367
-0.063599 0.0350708 0.0223429
-0.0168603 0.0385124 0.0283428
-0.0858018 0.111027 0.0390801
-0.063599 0.0613624 0.00017261
-0.063599 0.0614914 -0.000202267
-0.063599 0.0610912 0.00134647
-0.063599 0.0347967 0.0238439
-0.063599 0.0346822 0.0248621
-0.063599 0.0344 0.0259983
-0.0710316 0.147321 -0.0273019
-0.0703943 0.147326 -0.0273019
-0.063599 0.0602968 0.00463058
-0.0168603 0.0386449 0.0305814
-0.0168603 0.0388054 0.0326113
-0.0759166 0.111027 0.0458042
-0.0698217 0.111027 0.043538
-0.063599 0.0597647 0.00762237
-0.063599 0.0345816 0.0301422
-0.063599 0.0343658 0.0328603
-0.0168603 0.0390884 0.0367335
-0.0168603 0.0392413 0.0375466
-0.0168603 0.0363697 0.0416327
-0.0845148 0.111027 0.0416691
-0.0838185 0.111027 0.0320142
-0.0832678 0.111027 0.0295482
-0.0716253 0.0642885 0.00396838
-0.063599 0.0592615 0.0106908
-0.063599 0.0591834 0.0117351
-0.063599 0.0591881 0.0112724
-0.063599 0.0591675 0.0141731
-0.063599 0.059619 0.017081
-0.0583747 0.0589285 0.0194367
-0.0168603 0.0394333 0.0395752
-0.0168603 0.034973 0.0431076
-0.0719786 0.0642885 0.00537275
-0.0582697 0.0588621 0.0194367
-0.063599 0.0347245 0.0397334
-0.0168603 0.0384742 0.0407972
-0.0168603 0.0348167 0.0437123
-0.0168603 0.0348087 0.0440219
-0.0168603 0.0347864 0.0452013
-0.0728734 0.0642885 0.00883963
-0.0730131 0.0642885 0.0104609
-0.0723554 0.0642885 0.0128749
-0.0579245 0.0587773 0.0194367
-0.063599 0.0347591 0.0400846
-0.0168603 0.0347134 0.0476518
-0.0168603 0.0349381 0.0499111
-0.063599 0.0596392 0.0171768
-0.0590296 0.0590773 0.0194367
-0.0639291 0.0603903 0.0194367
-0.0168603 0.0349716 0.0501293
-0.0723327 0.0642885 0.0131827
-0.063599 0.0606838 0.0207394
-0.063599 0.0348259 0.0403181
-0.063599 0.035371 0.0416518
-0.063599 0.0354465 0.0421187
-0.063599 0.0607924 0.0210308
-0.0233722 0.157766 -0.00967287
-0.023107 0.157766 -0.00931151
-0.0168603 0.159987 -0.0111522
-0.030584 0.157766 -0.0117223
-0.0168603 0.161408 -0.0140772
-0.0168603 0.161802 -0.0147682
-0.0656276 0.147899 -0.0273019
-0.0672808 0.14714 -0.0273019
-0.00993297 0.171781 -0.0273019
-0.063599 0.149328 -0.0256327
-0.063599 0.150356 -0.0276448
-0.063293 0.150705 -0.0273019
-0.0625297 0.151881 -0.0273019
-0.00978915 0.171744 -0.0273019
-0.0644263 0.148763 -0.0273019
-0.063599 0.148894 -0.023895
-0.063599 0.144575 -0.0116361
-0.0640442 0.157766 -0.0461841
-0.063599 0.15862 -0.0459673
-0.063599 0.160072 -0.0562295
-0.0645848 0.157766 -0.0534712
-0.063599 0.159696 -0.0550452
-0.063599 0.151727 -0.0314902
-0.0168603 0.16519 -0.018435
-0.0265763 0.157766 -0.0108927
-0.0281879 0.157766 -0.0114293
-0.0645527 0.157766 -0.0521428
-0.0644837 0.157766 -0.0515303
-0.063599 0.158708 -0.0465554
-0.063599 0.14828 -0.0207866
-0.0684394 0.146922 -0.0273019
-0.0641219 0.157766 -0.0468227
-0.063599 0.158628 -0.0460024
-0.063599 0.143388 -0.00889296
-0.063599 0.14418 -0.0107955
-0.0638844 0.157766 -0.0452036
-0.063599 0.158588 -0.0458751
-0.063599 0.141422 -0.00698607
-0.0215628 0.157766 -0.00816083
-0.0168603 0.162731 -0.0157892
-0.063599 0.147683 -0.0188888
-0.063599 0.142968 -0.00805311
-0.063599 0.14471 -0.0120018
-0.063599 0.146293 -0.0154907
-0.0215242 0.157766 -0.00798291
-0.063599 0.145967 -0.0142435
-0.063599 0.152567 -0.0334746
