-0.00517563 0.0345812 -0.0175586
-0.00426249 0.0346987 -0.0170779
-0.00225446 0.0341452 -0.0184443
0.000666705 0.0341494 -0.0180132
0.00212729 0.0341514 -0.0177976
0.00358787 0.0341535 -0.017582
-0.00225446 0.0342031 -0.018278
0.000666705 0.0347586 -0.016263
-0.00371505 0.0345563 -0.0174251
-0.0040914 0.0346905 -0.0170779
0.00504846 0.0341532 -0.0171681
0.00533317 0.034153 -0.0170779
0.00650904 0.0341522 -0.0167052
0.00943021 0.0341504 -0.0157794
0.00212729 0.0345277 -0.0167169
0.00289509 0.0343636 -0.0170779
0.00358787 0.0342156 -0.0174035
0.00399241 0.0342748 -0.0170779
0.00435813 0.0346573 -0.0156173
0.00860211 0.034454 -0.0141567
0.00943021 0.0342214 -0.0153377
0.00962621 0.0341663 -0.0156173
0.0108908 0.0342531 -0.0163318
0.0123144 0.0343744 -0.0170779
0.0123514 0.0343775 -0.0170972
0.013812 0.034502 -0.0178627
0.00504846 0.0346393 -0.0154604
0.00943021 0.0341769 -0.0156861
0.00650904 0.0344852 -0.0155356
0.00796962 0.0343311 -0.0156108
0.00809459 0.0343179 -0.0156173
0.0097311 0.034152 -0.0156173
0.011427 0.0342178 -0.0126961
0.0144356 0.0345651 -0.0170779
0.0151001 0.0346379 -0.0156173
0.0152725 0.0346568 -0.0152382
0.0152725 0.0346507 -0.0140508
0.015427 0.0346699 -0.0141567
0.0123514 0.0342873 -0.0120481
0.0132966 0.0344049 -0.0126961
0.015661 0.0346955 -0.0141567
0.0152725 0.0345889 -0.0112214
0.0154677 0.0346424 -0.0126961
0.0150811 0.0345364 -0.00977493
0.0146946 0.0344303 -0.00685377
0.0157238 0.0347089 -0.0141567
0.0160508 0.0347673 -0.0126961
0.0167047 0.034884 -0.00977493
0.0173586 0.0350007 -0.00685377
-0.0431508 0.0335156 -0.0228068
-0.041436 0.0335184 -0.0243808
-0.0402296 0.0335284 -0.0251742
-0.0380341 0.0336776 -0.0214596
-0.0373085 0.033727 -0.020232
-0.040405 0.033542 -0.0243808
-0.0405664 0.033606 -0.0214596
-0.0408892 0.0337338 -0.0156173
-0.0314661 0.033684 -0.0217553
-0.0300056 0.033672 -0.0220177
-0.0331121 0.0336975 -0.0214596
-0.0329267 0.0338453 -0.0211976
-0.0314661 0.0341015 -0.0209292
-0.028545 0.0346139 -0.0203925
-0.0270844 0.0348701 -0.0201242
-0.0264031 0.0349896 -0.019999
-0.0358479 0.03372 -0.0206078
-0.0343873 0.033708 -0.0211198
-0.0329267 0.0345916 -0.0202506
-0.0327402 0.0347956 -0.019999
-0.032483 0.0350768 -0.0196521
-0.0347069 0.0339623 -0.019999
-0.0358479 0.0342686 -0.0184092
-0.0357551 0.0342437 -0.0185384
-0.0343873 0.0338766 -0.0204443
-0.028545 0.0339017 -0.0218018
-0.0281294 0.0341089 -0.0214596
-0.0270844 0.0346301 -0.0205991
-0.0263556 0.0349935 -0.019999
-0.0183209 0.0344906 -0.0194583
-0.0168603 0.0345226 -0.0192119
-0.0256238 0.034945 -0.019952
-0.0241632 0.0348325 -0.0198792
-0.0227026 0.0347201 -0.0198064
-0.0197815 0.0344951 -0.0196608
-0.0197815 0.0358597 -0.018859
-0.0195739 0.0350768 -0.0192993
-0.0199326 0.0364297 -0.0185384
-0.0199612 0.0365374 -0.0184779
-0.0153997 0.0345534 -0.0189631
-0.0139391 0.0345817 -0.0187087
-0.0129614 0.0346006 -0.0185384
-0.0124785 0.0346099 -0.0184544
-0.0197815 0.0372927 -0.017994
-0.0177331 0.0358631 -0.0185384
-0.0168603 0.035254 -0.0187704
-0.0166064 0.0350768 -0.0188379
-0.0153997 0.0347999 -0.0188134
-0.0149172 0.0350768 -0.0185669
-0.011018 0.037315 -0.0165746
-0.011018 0.0347783 -0.0180957
-0.0101583 0.0350768 -0.0177363
-0.00955738 0.0352856 -0.0174851
-0.0085834 0.0356238 -0.0170779
-0.011018 0.0346348 -0.0182009
-0.0080968 0.0346679 -0.0176986
-0.00517563 0.0347011 -0.0171963
-0.00448709 0.0347089 -0.0170779
-0.0112472 0.0350768 -0.0179708
-0.011018 0.035594 -0.0176196
-0.0106645 0.0363916 -0.0170779
-0.0105998 0.0365374 -0.0169788
0.00504846 0.0346717 -0.0152059
0.00650904 0.0345914 -0.014703
0.00796962 0.0345111 -0.0142
0.00809531 0.0345042 -0.0141567
0.00943021 0.0344165 -0.0134163
0.0105429 0.0343382 -0.0126961
0.0108908 0.0343137 -0.0124709
0.00822616 0.0350768 -0.0136461
0.00751404 0.0366048 -0.0126961
0.00922608 0.0346755 -0.0126961
0.00943021 0.0347302 -0.0123232
0.0100256 0.0348899 -0.0112355
0.013812 0.034491 -0.0173306
0.0137276 0.0344795 -0.0170779
0.0122653 0.0342802 -0.0126961
0.0123514 0.0342919 -0.0129541
0.0132402 0.034413 -0.0156173
-0.0443433 0.0335195 -0.0214596
-0.0410419 0.0337303 -0.0156173
-0.0463279 0.0345124 -0.0185384
-0.046072 0.0343772 -0.0189563
-0.0445391 0.0335673 -0.0214596
-0.0461938 0.033676 -0.0170779
-0.046072 0.0336647 -0.0173934
-0.0445015 0.0335194 -0.0214596
-0.0314661 0.0354259 -0.0192486
-0.0270844 0.035062 -0.0198807
-0.028545 0.0351833 -0.01967
-0.0272635 0.0350768 -0.0198549
-0.0263405 0.0350768 -0.0199384
-0.0262967 0.0372476 -0.0185384
-0.0262816 0.037998 -0.0180545
-0.0261638 0.0350768 -0.0199259
-0.0256238 0.0353088 -0.0197382
-0.0227026 0.0365636 -0.0187232
-0.022171 0.0367919 -0.0185384
-0.0212421 0.037191 -0.0182156
-0.0285994 0.0370149 -0.0185384
-0.028545 0.0369663 -0.0185734
-0.0264278 0.0350768 -0.0199327
-0.0080968 0.0356484 -0.0169802
-0.00568818 0.0350768 -0.0170048
-0.00517563 0.0349552 -0.0170101
-0.00955738 0.0373205 -0.0162971
-0.00896842 0.0365374 -0.0166274
0.00212729 0.0347649 -0.0158763
0.00344174 0.0347315 -0.0156173
0.00358787 0.0347278 -0.0155885
-0.00371505 0.03472 -0.0169423
-0.00225446 0.0347445 -0.0166816
0.000666705 0.0347934 -0.0161604
0.000666705 0.0352358 -0.0159291
0.000739375 0.0350768 -0.0159999
0.000346464 0.0359362 -0.0156173
7.15372e-05 0.0365374 -0.0153495
0.00476404 0.0350768 -0.0149912
0.00650904 0.0368774 -0.0128677
0.00665009 0.0370229 -0.0126961
0.000666705 0.0370002 -0.0149734
0.00358787 0.0352087 -0.015328
0.00380281 0.0350768 -0.0153541
0.00358787 0.0361153 -0.0146781
0.00419097 0.0350768 -0.0152306
0.00249453 0.037998 -0.0136764
0.0122268 0.0342559 -0.0112355
0.0123514 0.034264 -0.0109823
0.0129453 0.0343026 -0.00977493
0.0143823 0.0343961 -0.00685377
0.011878 0.0342559 -0.0112355
0.0116595 0.0343027 -0.00977493
0.011441 0.0343494 -0.00831435
0.0108908 0.0346654 -0.0112455
0.0108709 0.0346734 -0.0112355
-0.0407131 0.0337388 -0.0156173
-0.0373085 0.0337316 -0.0200327
-0.0402296 0.0337378 -0.0162442
-0.0384607 0.0337341 -0.0185384
-0.0373085 0.0337409 -0.019977
-0.0372981 0.0337394 -0.019999
-0.0379829 0.0338356 -0.0185384
-0.0393525 0.034028 -0.0156173
-0.037216 0.0337635 -0.019999
-0.0369029 0.0341527 -0.0185384
-0.00955738 0.0376633 -0.0161244
-0.0080968 0.0368658 -0.0163666
-0.00517563 0.0352708 -0.016851
-0.00482046 0.0350768 -0.0169099
-0.00404726 0.0350768 -0.0167501
-0.0036019 0.0366024 -0.0156173
-0.00319448 0.037998 -0.0145809
-0.0030277 0.0385693 -0.0141567
-0.00371505 0.0350654 -0.0167617
-0.0037008 0.0350768 -0.0167533
-0.001776 0.0366249 -0.0156173
-0.000793879 0.0374148 -0.0150376
0.00358787 0.0381746 -0.013083
0.00449311 0.037998 -0.0128417
0.0050393 0.0378915 -0.0126961
0.00650904 0.0376048 -0.0123043
0.00796962 0.0367764 -0.0117991
0.00826054 0.0365374 -0.0116827
0.00937826 0.0356194 -0.0112355
0.00943021 0.0355767 -0.0112147
0.0100388 0.0350768 -0.0109712
0.00696645 0.0377473 -0.0112355
0.00683495 0.037998 -0.0103513
0.00674924 0.0381614 -0.00977493
0.00653204 0.0385755 -0.00831435
0.00504846 0.0384236 -0.0116912
0.00598363 0.037998 -0.0118985
0.00650904 0.0377589 -0.0120149
0.0123514 0.0343953 -0.00687909
0.0124611 0.0343961 -0.00685377
0.013812 0.0344061 -0.00654192
0.0152725 0.0345504 -0.00640098
0.0167331 0.034864 -0.00650878
0.013812 0.0343729 -0.00544316
0.0137671 0.0343707 -0.00539318
0.00943021 0.0341624 -0.000557809
0.00983707 0.0341819 -0.00101143
0.0123514 0.0343027 -0.00381471
0.0124571 0.0343078 -0.0039326
0.0149813 0.0343974 -0.00539318
0.0152725 0.0343853 -0.00460064
0.015518 0.0343751 -0.0039326
0.0165916 0.0343305 -0.00101143
0.0167331 0.0343246 -0.000626193
0.0171283 0.0343082 0.000449151
0.0146015 0.0343791 -0.00539318
0.0145605 0.0343289 -0.0039326
0.0144786 0.0342286 -0.00101143
0.0144377 0.0341784 0.000449151
-0.046072 0.0336897 -0.0166945
-0.041864 0.03373 -0.0156173
-0.0416902 0.0337317 -0.0155728
-0.0446114 0.0335866 -0.0134899
-0.0438902 0.0336163 -0.0138557
-0.0432969 0.0336407 -0.0141567
-0.0431508 0.0336467 -0.0142308
-0.0416902 0.0337068 -0.0149717
-0.0402296 0.033936 -0.0150469
-0.0410465 0.0337975 -0.0141567
-0.0412194 0.0338676 -0.0126961
-0.041565 0.0340078 -0.00977493
-0.0314661 0.0360718 -0.0188514
-0.0307979 0.0366819 -0.0185384
-0.0300056 0.0374052 -0.0181674
-0.0358479 0.0346555 -0.0176301
-0.0343873 0.034978 -0.0182267
-0.0329267 0.0353005 -0.0188234
-0.0339397 0.0350768 -0.0184096
-0.0336242 0.0351465 -0.0185384
-0.0320625 0.0361363 -0.0185384
-0.0319147 0.037998 -0.0167896
-0.0256238 0.0382062 -0.0178738
-0.0237209 0.037998 -0.0178725
-0.0227026 0.0378866 -0.0178718
-0.0212421 0.0377269 -0.0178708
-0.028545 0.0379738 -0.0179223
-0.0283641 0.037998 -0.0179185
-0.0270844 0.0381693 -0.0178913
-0.0256238 0.0383374 -0.0176681
-0.0227026 0.0386059 -0.0167452
-0.0270844 0.0384496 -0.0172468
-0.0273021 0.038496 -0.0170779
-0.0197815 0.037631 -0.0177874
-0.0168603 0.037712 -0.0172694
-0.011018 0.0378739 -0.0162332
-0.0212421 0.0381034 -0.017281
-0.0210262 0.037998 -0.0174089
-0.021585 0.0382708 -0.0170779
-0.0197815 0.0378331 -0.0175085
-0.0194237 0.037998 -0.017231
-0.0192263 0.0380891 -0.0170779
-0.0183209 0.0385065 -0.0163756
-0.00955738 0.0379626 -0.0159202
-0.0093007 0.037998 -0.015843
-0.00855051 0.0381016 -0.0156173
-0.0080968 0.0381642 -0.0154808
-0.00663621 0.0383658 -0.0150414
-0.00517563 0.0385674 -0.0146019
-0.00371505 0.038769 -0.0141625
-0.00369559 0.0387716 -0.0141567
-0.00971628 0.037998 -0.0158655
-0.00934503 0.0381257 -0.0156173
-0.0080968 0.038555 -0.0147826
-0.00716072 0.0388769 -0.0141567
-0.0168603 0.0385786 -0.0160729
-0.011018 0.038003 -0.0160549
-0.0109673 0.037998 -0.0160548
-0.011018 0.0381253 -0.0158614
-0.0104342 0.037998 -0.01597
-0.0139391 0.0387623 -0.0153177
-0.0124785 0.0384438 -0.0155895
-0.0123296 0.0384113 -0.0156173
-0.000793879 0.0378502 -0.0147131
-0.00231512 0.0385781 -0.0141567
-0.00225446 0.0385491 -0.0141789
-0.00110278 0.037998 -0.0146002
-0.00663621 0.0390317 -0.0138517
-0.00517563 0.0389703 -0.0138821
-0.00371505 0.0389089 -0.0139126
-0.00225446 0.0388183 -0.0138646
0.000666705 0.0385709 -0.0135902
0.00212729 0.0384472 -0.013453
-0.00225446 0.0390008 -0.0131365
-0.00187443 0.0390701 -0.0126961
0.000659828 0.037998 -0.0142603
0.000666705 0.0379999 -0.0142567
0.000859948 0.0380537 -0.0141567
0.00212729 0.0384065 -0.0135004
0.0105233 0.0347737 -0.00977493
0.0108908 0.0345819 -0.00846249
0.0109323 0.0345603 -0.00831435
0.0108908 0.0345378 -0.00720245
0.00943021 0.035127 -0.00748554
0.00955454 0.0350768 -0.00746144
0.011171 0.0343776 -0.00685377
0.00943021 0.034196 -0.00167223
0.0101896 0.0342753 -0.0039326
0.0092082 0.0341729 -0.00101143
0.00943021 0.0344785 -0.00521906
0.0109987 0.0344005 -0.00685377
0.00796962 0.0345511 -0.00369684
0.00819584 0.0345399 -0.0039326
-0.0464311 0.0339779 -0.0170779
-0.0475326 0.0343091 -0.0161268
-0.0470964 0.03453 -0.0170779
-0.0477662 0.0341907 -0.0156173
-0.0293521 0.037998 -0.0176354
-0.028545 0.0387172 -0.0162132
-0.0300056 0.037962 -0.0176258
-0.0314661 0.0383268 -0.016658
-0.0301497 0.037998 -0.0175303
-0.0270844 0.0387262 -0.016256
-0.0256238 0.0386994 -0.0163713
-0.0227026 0.0386459 -0.016602
-0.0212421 0.0386505 -0.0164924
-0.0197815 0.0386655 -0.0163086
-0.0183209 0.0386805 -0.0161248
-0.0227026 0.0386353 -0.0161134
-0.0230504 0.0386316 -0.0156173
-0.0250985 0.0386098 -0.0126961
-0.0223893 0.0386284 -0.0156173
-0.0225316 0.0385974 -0.0126961
-0.0226738 0.0385664 -0.00977493
-0.0139391 0.0387676 -0.0153098
-0.0124785 0.0388214 -0.0150152
-0.011018 0.0388753 -0.0147206
-0.0080968 0.0389831 -0.0141315
-0.011018 0.0389878 -0.0130967
-0.0080968 0.0390194 -0.0136068
-0.00663621 0.0390368 -0.0138249
-0.00517563 0.0390875 -0.0132658
-0.00371505 0.0391382 -0.0127066
-0.00368756 0.0391391 -0.0126961
-0.00225446 0.0391889 -0.0121475
-0.00663621 0.0390358 -0.0137379
-0.00602178 0.0390481 -0.0126961
-0.00517563 0.0390651 -0.0112615
-0.00429889 0.0390826 -0.00977493
-0.00702898 0.0390076 -0.0126961
-0.0080968 0.0389197 -0.00892082
-0.00785522 0.0389396 -0.00977493
-0.00868145 0.0388715 -0.00685377
-0.00909457 0.0388375 -0.00539318
-0.000793879 0.0391871 -0.0117627
0.00212729 0.0384653 -0.0133805
0.000666705 0.0388262 -0.0125716
0.000891483 0.0387707 -0.0126961
0.00306378 0.0385573 -0.0126961
0.00358787 0.0386333 -0.0122217
0.00225404 0.0385818 -0.0126961
0.00231218 0.0391456 -0.00977493
0.00943021 0.035708 -0.0103528
0.0100675 0.0350768 -0.0108049
0.00861552 0.0365148 -0.00977493
0.00796962 0.0371545 -0.00931677
0.00859267 0.0365374 -0.00975873
0.00711784 0.037998 -0.00871257
0.00655644 0.038554 -0.00831435
0.00991726 0.035014 -0.00977493
0.00943021 0.0351407 -0.00787782
0.00967577 0.0350768 -0.00883432
-0.0461323 0.033644 -0.0156173
-0.046072 0.0336298 -0.0152459
-0.0460142 0.0336163 -0.0148905
-0.045895 0.0335883 -0.0141567
-0.0475326 0.0338168 -0.0153236
-0.0472837 0.0337903 -0.0156173
-0.0479328 0.0338474 -0.0141567
-0.0475326 0.0337927 -0.0139387
-0.0462413 0.0336163 -0.0132355
-0.046072 0.0335931 -0.0131433
-0.0454003 0.0335763 -0.0126961
-0.0431508 0.0338366 -0.0108546
-0.041832 0.0339892 -0.00977493
-0.0416902 0.0340056 -0.00965885
-0.0475326 0.0335394 -0.0118253
-0.0460975 0.0335414 -0.0126961
-0.0485045 0.0335381 -0.0112355
-0.046072 0.0335414 -0.0127116
-0.0456329 0.0335474 -0.0126961
-0.0448614 0.033613 -0.00977493
-0.0440899 0.0336787 -0.00685377
-0.046072 0.0335507 -0.00984487
-0.0457265 0.0335426 -0.0126961
-0.0460804 0.0335509 -0.00977493
-0.0464344 0.0335592 -0.00685377
-0.0466113 0.0335633 -0.00539318
-0.0314661 0.0384698 -0.0163541
-0.028545 0.0387485 -0.0161466
-0.0281257 0.0387334 -0.0156173
-0.0260183 0.0386283 -0.0126961
-0.0256238 0.0386086 -0.0121493
-0.028545 0.0387505 -0.0161028
-0.0314661 0.0386204 -0.0130617
-0.0290114 0.0387298 -0.0156173
-0.0329267 0.0385554 -0.0115412
-0.0318174 0.0386048 -0.0126961
-0.0332204 0.0385423 -0.0112355
-0.0168603 0.0387067 -0.0158701
-0.0155416 0.038734 -0.0156173
-0.0153997 0.038737 -0.0155901
-0.0178716 0.0386916 -0.0156173
-0.0174685 0.0387368 -0.0126961
-0.017267 0.0387594 -0.0112355
-0.0197815 0.0386377 -0.0135404
-0.0182691 0.038676 -0.0156173
-0.0203962 0.0386221 -0.0126961
-0.0225234 0.0385682 -0.00977493
-0.0139391 0.0387688 -0.0152919
-0.0128821 0.0388716 -0.0141567
-0.0124785 0.0389109 -0.0137232
-0.0153997 0.0387718 -0.0129035
-0.014651 0.0387692 -0.0141567
-0.0168603 0.0387769 -0.0104588
-0.0155236 0.0387722 -0.0126961
-0.0168603 0.0387869 -0.0101846
-0.0139391 0.0388975 -0.0117809
-0.0122644 0.038961 -0.0126961
-0.011683 0.0389745 -0.0126961
-0.011018 0.0389367 -0.0106981
-0.0107107 0.0389192 -0.00977493
-0.00973834 0.038864 -0.00685377
-0.00955738 0.0388537 -0.00631012
-0.00925217 0.0388363 -0.00539318
-0.0118825 0.0389695 -0.0126961
-0.0139391 0.0387801 -0.0076688
-0.0130775 0.0388594 -0.00977493
-0.0142726 0.0387493 -0.00685377
-0.0148701 0.0386943 -0.00539318
-0.00225446 0.0391721 -0.0106517
-0.00151628 0.0392075 -0.0112355
-0.00371505 0.0391023 -0.00949665
-0.00336316 0.0391191 -0.00977493
-0.000968706 0.0392282 -0.0112355
-0.000929658 0.0392114 -0.00977493
-0.00089061 0.0391946 -0.00831435
-0.000793879 0.0392377 -0.0115043
-0.0004717 0.0392456 -0.0112355
0.000666705 0.0392737 -0.0102858
0.00127909 0.0392888 -0.00977493
0.00212729 0.0393097 -0.00906733
0.00796962 0.0368272 -0.00788888
0.00820762 0.0365374 -0.00782178
0.00700799 0.037998 -0.00816
0.00454806 0.0387283 -0.0112355
0.00504846 0.0386911 -0.0104928
0.00553209 0.0386551 -0.00977493
0.00650904 0.0385825 -0.00832486
0.00651612 0.038582 -0.00831435
0.00504846 0.0387954 -0.0065478
0.00530776 0.0387578 -0.00685377
0.00650904 0.0385839 -0.00827126
0.00625026 0.0382757 -0.00685377
0.00650904 0.038559 -0.00819103
0.00626521 0.037998 -0.00623807
0.00796962 0.0364251 -0.00694118
0.00784788 0.0365374 -0.00689096
0.00650904 0.037773 -0.00633865
0.00775773 0.0366206 -0.00685377
0.00884035 0.0352095 -0.00685377
0.00650904 0.0354163 -0.00378408
0.00662184 0.0354063 -0.0039326
0.00899999 0.0350768 -0.00678711
0.00903106 0.0350851 -0.00685377
0.00766918 0.0347231 -0.0039326
0.0181937 0.0350477 -0.00579132
0.0188275 0.0350768 -0.00515823
0.0196543 0.0351148 -0.00433231
0.0174285 0.0349063 -0.00539318
0.0174336 0.0347734 -0.0039326
0.0174438 0.0345077 -0.00101143
0.0174489 0.0343748 0.000449151
0.0204606 0.0348919 -0.00101143
0.0201039 0.0350768 -0.00331586
0.0200084 0.0351263 -0.0039326
0.0178741 0.0344332 0.000449151
0.0181937 0.0345381 -0.000217775
0.018574 0.0346628 -0.00101143
0.0198359 0.0350768 -0.00364446
0.0199739 0.0351221 -0.0039326
-0.0504537 0.0336994 -0.0129233
-0.0489931 0.0338394 -0.013925
-0.0486553 0.0338718 -0.0141567
-0.0483764 0.033879 -0.0141567
-0.0488367 0.0336163 -0.0116896
-0.0486489 0.0337235 -0.0126961
-0.0489215 0.0335679 -0.0112355
-0.0373085 0.0343944 -0.0167659
-0.0369225 0.0344443 -0.0170779
-0.0387691 0.0342058 -0.0155857
-0.03873 0.0342108 -0.0156173
-0.0390469 0.0346871 -0.0141567
-0.0387691 0.0349326 -0.0138929
-0.0386059 0.0350768 -0.013738
-0.0404814 0.0340556 -0.0126961
-0.0415179 0.0340198 -0.00977493
-0.0402296 0.0340643 -0.0134056
-0.0399632 0.0340734 -0.0141567
-0.0359209 0.0350768 -0.0171676
-0.0343873 0.0363497 -0.01687
-0.0324012 0.037998 -0.0164846
-0.0373085 0.0347663 -0.0158999
-0.0367479 0.0345274 -0.0170779
-0.037443 0.0348236 -0.0156173
-0.0380371 0.0350768 -0.0143687
-0.038138 0.0351198 -0.0141567
-0.0364166 0.0348333 -0.0170779
-0.0362629 0.0350768 -0.0169195
-0.0349994 0.0370794 -0.0156173
-0.0344199 0.037998 -0.0150199
-0.0343873 0.0380496 -0.0149864
-0.036619 0.034658 -0.0170779
-0.0365718 0.0350768 -0.0165358
-0.036492 0.0357867 -0.0156173
-0.0362432 0.037998 -0.0127556
-0.036238 0.038044 -0.0126961
-0.0329267 0.0383152 -0.0157519
-0.0331497 0.0382906 -0.0156173
-0.0321208 0.0384432 -0.0156173
-0.0329267 0.0384864 -0.0130485
-0.032579 0.0384678 -0.0141567
-0.0330373 0.0384924 -0.0126961
-0.0334955 0.0385169 -0.0112355
-0.0329267 0.0385311 -0.0109179
-0.0314661 0.0385458 -0.011142
-0.028545 0.038575 -0.0115902
-0.0256238 0.0386043 -0.0120385
-0.0256238 0.0385794 -0.0113881
-0.0257994 0.038517 -0.00977493
-0.0261174 0.038404 -0.00685377
-0.0262764 0.0383475 -0.00539318
-0.0246167 0.0385917 -0.0112355
-0.0241632 0.0385852 -0.0108407
-0.0229389 0.0385677 -0.00977493
-0.0227026 0.0385644 -0.00956927
-0.00371505 0.0390974 -0.00910595
-0.00233645 0.0391398 -0.00831435
-0.00225446 0.0391423 -0.00826727
-0.00884705 0.0388474 -0.00539318
-0.0080968 0.0388848 -0.00599346
-0.00702155 0.0389383 -0.00685377
-0.00517563 0.0390302 -0.00833069
-0.00393241 0.0390622 -0.00831435
-0.00382722 0.0390219 -0.00685377
-0.00361683 0.0389413 -0.0039326
-0.00340644 0.0388607 -0.00101143
0.00358787 0.0389581 -0.0105441
0.00411658 0.0388083 -0.0112355
0.00299975 0.0391248 -0.00977493
0.00434485 0.0387514 -0.0112355
0.00433945 0.0387906 -0.00977493
0.00432865 0.038869 -0.00685377
0.00739073 0.0345304 -0.00247202
0.00796962 0.034371 -0.00143475
0.00820588 0.0343059 -0.00101143
0.00943021 0.034135 0.000245766
0.0123514 0.0341417 0.000909931
0.013812 0.0341451 0.00124201
0.00630404 0.0340159 0.00190974
0.00650904 0.0340254 0.00176374
0.00796962 0.0340935 0.000723513
0.00835486 0.0341114 0.000449151
0.00885695 0.0341802 0.000449151
0.00896622 0.0343807 0.00190974
0.0211149 0.0348692 -0.0011894
0.0207246 0.0348776 -0.00101143
0.0196543 0.0347228 -0.000292259
0.0181937 0.0344389 0.000783613
0.0186478 0.0345271 0.000449151
0.0211149 0.0348864 -0.000434067
0.0223247 0.0348931 0.000449151
0.0225755 0.0348945 0.000632196
0.0210613 0.0347742 0.000449151
0.0211149 0.0347642 0.000573043
0.0216932 0.0346563 0.00190974
0.0223251 0.0345385 0.00337032
0.021632 0.0348675 -0.00101143
0.0225704 0.0348904 0.000449151
0.0225755 0.0348905 0.000456969
-0.0519143 0.0337413 -0.0120509
-0.0508234 0.033701 -0.0126961
-0.0504537 0.0336818 -0.0127504
-0.0504091 0.0336775 -0.0126961
-0.0489931 0.0335393 -0.0109726
-0.0505777 0.0336787 -0.0126961
-0.051164 0.0334658 -0.00977493
-0.0414303 0.0340785 -0.00977493
-0.0402296 0.0345421 -0.0112859
-0.0391091 0.0349747 -0.0126961
-0.0388444 0.0350768 -0.0130292
-0.0387691 0.0351059 -0.013124
-0.0374576 0.0365374 -0.0130926
-0.0373085 0.0367382 -0.0130199
-0.0366443 0.0376325 -0.0126961
-0.0363729 0.037998 -0.0125638
-0.0387691 0.0352446 -0.0127217
-0.0387797 0.0352447 -0.0126961
-0.0393848 0.035252 -0.0112355
-0.0360575 0.0382003 -0.0126961
-0.0343873 0.0381639 -0.0148226
-0.0341895 0.038229 -0.0141567
-0.0339449 0.0383578 -0.0126961
-0.0337003 0.0384866 -0.0112355
-0.0197815 0.0386752 -0.00981264
-0.0183209 0.0387311 -0.00994297
-0.0212421 0.0386193 -0.0096823
-0.020204 0.038659 -0.00977493
-0.0172351 0.0387641 -0.00977493
-0.0197815 0.0385017 -0.00441957
-0.0186241 0.038621 -0.00685377
-0.020013 0.0384779 -0.0039326
-0.0170235 0.0387716 -0.00977493
-0.0168603 0.0387591 -0.00921126
-0.0161777 0.0387069 -0.00685377
-0.0157549 0.0386746 -0.00539318
-0.0153997 0.0386475 -0.00416649
-0.000793879 0.0391879 -0.00750431
0.00212729 0.0393065 -0.00880823
0.000666705 0.0392472 -0.00815627
0.00102086 0.0392616 -0.00831435
-0.00107845 0.0391555 -0.00685377
-0.00225446 0.038991 -0.00340234
-0.00207378 0.0390163 -0.0039326
-0.00306912 0.038877 -0.00101143
-0.000793879 0.0391615 -0.00695697
-0.000778989 0.0391568 -0.00685377
-0.000357532 0.0390237 -0.0039326
6.3925e-05 0.0388907 -0.00101143
0.00269319 0.0392392 -0.00831435
0.00358787 0.0390532 -0.00687677
0.00360219 0.0390503 -0.00685377
0.00212729 0.0392765 -0.00818767
0.00216335 0.0392833 -0.00831435
0.00174763 0.0392049 -0.00685377
8.47561e-05 0.0388911 -0.00101143
0.000666705 0.0390009 -0.00305605
0.000916192 0.039048 -0.0039326
0.00504846 0.0385905 -0.00588884
0.00424117 0.0388084 -0.00539318
0.00343165 0.0379146 -0.00247202
0.00350721 0.037998 -0.00274466
0.00358787 0.0380871 -0.00303573
0.00383641 0.0383615 -0.0039326
0.00358787 0.0388982 -0.00487428
0.00405444 0.0388995 -0.00539318
0.000114603 0.0388886 -0.00101143
0.000666705 0.0388901 -0.00162546
0.00274116 0.0388958 -0.0039326
0.00613494 0.037998 -0.00605402
0.00639961 0.0356959 -0.0039326
0.00462611 0.037998 -0.00408967
0.00504846 0.038036 -0.00468026
0.00555828 0.038082 -0.00539318
0.00346929 0.0378938 -0.00247202
0.00358787 0.0379045 -0.00263783
0.00451379 0.0379879 -0.0039326
0.00650904 0.0353354 -0.00359521
0.00673907 0.0350768 -0.00334162
0.00358787 0.0350481 0.000560003
0.00504846 0.0352408 -0.00161887
0.00562035 0.0353163 -0.00247202
0.00380557 0.0350768 0.00023524
0.00464127 0.0351871 -0.00101143
0.00504846 0.0365505 -0.00308897
0.00506451 0.0365374 -0.00309585
0.00358787 0.0377415 -0.00246321
0.00360842 0.0377247 -0.00247202
0.00358787 0.0349682 0.000725005
0.00532121 0.0347857 -0.00101143
0.00650904 0.0346606 -0.00220139
0.00677919 0.0346321 -0.00247202
0.00649186 0.034383 -0.00101143
0.00542085 0.0340556 0.00190974
0.00650904 0.0343883 -0.0010583
0.00702736 0.0345468 -0.00247202
0.0152725 0.0341885 0.00136465
0.0167331 0.0342597 0.0013414
0.0181937 0.0343308 0.00164853
0.0188019 0.0343604 0.00190974
0.0211149 0.034473 0.00290319
0.0222025 0.034526 0.00337032
0.0171105 0.0346408 0.00190974
0.0166803 0.0350768 0.00264028
0.0231038 0.0350768 0.000690706
0.024036 0.0356107 0.00040694
0.0225755 0.0347188 0.00207954
0.0226033 0.034742 0.00190974
0.0223637 0.0345422 0.00337032
0.0254966 0.0362234 0.000156138
0.0269572 0.0365204 0.000178601
0.0270408 0.0365374 0.000179887
0.024036 0.0355724 0.00125418
0.0246573 0.035956 0.000449151
0.0225755 0.0346706 0.00314687
0.022403 0.0345641 0.00337032
0.0232334 0.0350768 0.00229429
0.0235302 0.0352601 0.00190974
0.0249306 0.0359818 0.000449151
0.0252366 0.0350768 0.00276261
0.0251238 0.0354105 0.00190974
0.0284178 0.0369294 3.25199e-05
0.0298784 0.0376243 -0.000543983
0.0306638 0.037998 -0.000854009
0.0269572 0.0360337 0.00134031
0.0277123 0.0365374 0.000516199
0.0277737 0.0365784 0.000449151
0.0254966 0.0350594 0.00293446
0.0255228 0.0350768 0.00290593
0.0264355 0.0356857 0.00190974
0.0282489 0.0366954 0.000449151
0.0284178 0.0366686 0.000626653
0.0292432 0.0365374 0.00149401
0.0296387 0.0364746 0.00190974
0.0298784 0.0364365 0.00216156
0.0310286 0.0362537 0.00337032
0.0309661 0.037998 -0.000645777
0.0311836 0.0365374 0.00283083
0.031126 0.0369244 0.00190974
0.0312173 0.0363108 0.00337032
-0.0548355 0.0339882 -0.0116294
-0.0533749 0.033834 -0.0115505
-0.0562961 0.0339411 -0.0113009
-0.0572654 0.0336163 -0.0104885
-0.0563741 0.033915 -0.0112355
-0.0557957 0.034008 -0.0112355
-0.0555969 0.0336163 -0.00920014
-0.0556531 0.0337269 -0.00977493
-0.0555104 0.0334458 -0.00831435
-0.0539795 0.0336163 -0.0100455
-0.0533749 0.0336982 -0.010809
-0.0530371 0.033744 -0.0112355
-0.0553506 0.0334305 -0.00831435
-0.0548355 0.0335003 -0.00896472
-0.0541938 0.0335872 -0.00977493
-0.0520887 0.0336163 -0.0105044
-0.0526091 0.0337302 -0.0112355
-0.0519143 0.0335781 -0.0102594
-0.0515695 0.0335026 -0.00977493
-0.0416902 0.0340027 -0.00937886
-0.0422399 0.0339235 -0.00831435
-0.0431508 0.0337921 -0.00655035
-0.0429941 0.0338147 -0.00685377
-0.0416902 0.0340404 -0.00761795
-0.0416541 0.0340322 -0.00831435
-0.0417299 0.0340494 -0.00685377
-0.041099 0.0343501 -0.00977493
-0.0402296 0.0349408 -0.0101288
-0.0400294 0.0350768 -0.0102103
-0.0382244 0.0365374 -0.0112616
-0.0387691 0.0360846 -0.0109279
-0.0382669 0.0365021 -0.0112355
-0.0373085 0.0372989 -0.0118225
-0.0364676 0.037998 -0.0123375
-0.0358479 0.0382499 -0.0122481
-0.0343873 0.0384304 -0.0113015
-0.0342855 0.038443 -0.0112355
-0.036682 0.0382227 -0.0112355
-0.0377583 0.0382663 -0.00831435
-0.0373085 0.0382481 -0.00953521
-0.0372201 0.0382445 -0.00977493
0.013812 0.0341896 0.00156095
0.00943021 0.0345046 0.00289528
0.0123514 0.0342946 0.00200573
0.0126666 0.0342719 0.00190974
0.0151094 0.0345231 0.00190974
0.0152725 0.0346112 0.00203401
0.0161353 0.0350768 0.00269102
0.013812 0.0344122 0.0024047
0.0141011 0.034284 0.00190974
0.0225755 0.0345627 0.00341424
0.0230457 0.0346248 0.00337032
0.024036 0.0347556 0.00327781
0.0167331 0.0352384 0.00298141
0.0180209 0.0350768 0.00308535
0.0181937 0.0350552 0.0030993
0.0211149 0.0346887 0.00333507
0.0215516 0.0346339 0.00337032
0.0216003 0.0344633 0.0048309
0.0225277 0.0344535 0.0048309
0.0225755 0.0344317 0.00521253
0.0227104 0.03437 0.00629149
0.0228931 0.0342866 0.00775207
0.0253409 0.0349058 0.00337032
0.0254966 0.0348594 0.00400264
0.0257006 0.0347988 0.0048309
0.0254966 0.034935 0.00329209
0.0256201 0.0349432 0.00337032
0.0269572 0.0350326 0.00421736
0.0276195 0.0350768 0.00463691
0.0279257 0.0350973 0.0048309
0.0284178 0.0351302 0.00514263
0.0254966 0.0349665 0.00317547
0.0260008 0.0350768 0.00321127
0.0269572 0.0352862 0.00327917
0.0298784 0.0359256 0.00348658
0.0238243 0.0345096 0.00629149
0.0251912 0.0348936 0.00337032
0.024036 0.0345691 0.005839
0.0245078 0.0347016 0.0048309
0.0231408 0.0343176 0.00775207
-0.0577737 0.0336163 -0.0104506
-0.0577566 0.0336146 -0.0104481
-0.0592172 0.0336904 -0.0102366
-0.0606778 0.0335941 -0.0089064
-0.0597242 0.033657 -0.00977493
-0.0568626 0.0335325 -0.00977493
-0.0562961 0.0334823 -0.00909643
-0.055643 0.0334245 -0.00831435
-0.0577566 0.0335798 -0.0102215
-0.0606778 0.033592 -0.00889232
-0.058738 0.0335839 -0.00977493
-0.0573006 0.0335656 -0.00977493
-0.0571156 0.0335357 -0.00831435
-0.0569305 0.0335058 -0.00685377
-0.0565603 0.0334461 -0.0039326
-0.0563752 0.0334162 -0.00247202
-0.058082 0.033534 -0.00685377
-0.0577566 0.0335544 -0.00849178
-0.0575018 0.0335705 -0.00977493
-0.0586621 0.0334975 -0.0039326
-0.0592423 0.0334609 -0.00101143
-0.0595323 0.0334427 0.000449151
-0.0548558 0.0334145 -0.00831435
-0.0548355 0.0334146 -0.00832007
-0.0519143 0.0334299 -0.00914415
-0.0549285 0.0334189 -0.00685377
-0.0548355 0.0334202 -0.00664276
-0.0536412 0.0334364 -0.0039326
-0.0556814 0.0334115 -0.00685377
-0.0562961 0.0334125 -0.00267782
-0.0561114 0.0334122 -0.0039326
-0.0563264 0.0334126 -0.00247202
-0.0489931 0.0335367 -0.0109371
-0.0506281 0.033462 -0.00977493
-0.0484823 0.0335429 -0.00977493
-0.0472584 0.0335564 -0.00685377
-0.0466465 0.0335632 -0.00539318
-0.0431508 0.0338137 -0.00554143
-0.0446114 0.0336651 -0.00541235
-0.046072 0.0335912 -0.00535103
-0.0455762 0.0336163 -0.00537185
-0.045068 0.033642 -0.00539318
-0.0436894 0.0337107 -0.00539318
-0.0431508 0.0337203 -0.00436698
-0.0429228 0.0337244 -0.0039326
-0.0413898 0.0337516 -0.00101143
-0.0437448 0.0337099 -0.00539318
-0.0463974 0.0336828 0.000449151
-0.044408 0.0337031 -0.0039326
-0.046072 0.0336861 -0.000267583
-0.0457342 0.0336896 -0.00101143
-0.0406539 0.0347314 -0.00831435
-0.0416902 0.0341192 -0.00597855
-0.0413019 0.0343486 -0.00685377
-0.0402296 0.0349821 -0.00927053
-0.0400692 0.0350768 -0.00963217
-0.0400058 0.0351143 -0.00977493
-0.0416902 0.0340797 -0.00556763
-0.0416034 0.0340954 -0.00539318
-0.0408767 0.0342269 -0.0039326
-0.0402296 0.0343439 -0.00263206
-0.04015 0.0343583 -0.00247202
-0.0416902 0.034176 -0.00579723
-0.0409267 0.0350768 -0.00608161
-0.0384508 0.037998 -0.00700379
-0.0402296 0.0358993 -0.00634124
-0.0388536 0.0375228 -0.00685377
-0.0417496 0.0340393 -0.00539318
-0.0416902 0.0340023 -0.0048023
-0.0416028 0.0339479 -0.0039326
-0.0413093 0.0337653 -0.00101143
-0.0395026 0.0357667 -0.00977493
-0.0383553 0.037998 -0.00739937
0.00358787 0.0348145 0.00137028
0.00417779 0.0344832 0.00190974
0.00504846 0.0339941 0.00270591
0.0032551 0.0350768 0.000974908
0.00334537 0.0367384 -0.00101143
0.00322958 0.0347569 0.00190974
0.00319244 0.0343315 0.00337032
0.000666705 0.0374873 0.00183028
0.00317501 0.0350768 0.00108497
0.000399295 0.0377442 0.00190974
0.00212729 0.0350112 0.00301259
0.00276282 0.035007 0.00190974
0.00192114 0.0350126 0.00337032
0.00107947 0.0350183 0.0048309
0.00650904 0.0341634 0.00285004
0.00796962 0.0343754 0.00294288
0.00504846 0.0339675 0.00279479
0.00358787 0.0341448 0.003613
0.00402108 0.0340922 0.00337032
0.00504846 0.0340112 0.00319431
0.00502397 0.0340319 0.00337032
0.0056993 0.0341265 0.00337032
0.00650904 0.0343546 0.00420573
0.007115 0.0345252 0.0048309
0.00943021 0.0345357 0.00301344
0.0123514 0.0345644 0.00302852
0.00884339 0.0345546 0.00337032
0.00796962 0.0346511 0.00489797
0.00800799 0.0346468 0.0048309
0.00913873 0.0348867 0.00337032
0.00918704 0.0350768 0.00356273
0.013812 0.0346588 0.00302543
0.0152725 0.0349914 0.00299077
0.0156478 0.0350768 0.00298187
0.0158188 0.0358258 0.00337032
0.0167331 0.0352274 0.00307885
0.0176143 0.0350768 0.0035044
0.0173366 0.0351243 0.00337032
0.0181937 0.0349778 0.00378425
0.0203609 0.0346075 0.0048309
0.0211149 0.0344787 0.00519505
0.0167331 0.035377 0.0033042
0.0167799 0.035398 0.00337032
0.0178133 0.0358598 0.0048309
0.0181937 0.0360297 0.00536847
0.0188468 0.0363216 0.00629149
0.0269572 0.0348917 0.00554284
0.0285588 0.0350768 0.00582272
0.0254966 0.0347039 0.00566946
0.024036 0.0344513 0.00710088
0.0248619 0.0345941 0.00629149
0.0233716 0.0343364 0.00775207
0.0254966 0.0346598 0.00644434
0.0255426 0.0346739 0.00629149
0.0251031 0.0345393 0.00775207
0.0246637 0.0344048 0.00921265
0.0261821 0.0347354 0.00629149
0.0267298 0.0346958 0.00775207
0.0269572 0.0346793 0.00835836
0.0272776 0.0346562 0.00921265
0.0298784 0.0352486 0.00599115
0.0305298 0.0357173 0.0048309
0.0298784 0.0352289 0.00607803
0.0316361 0.0354049 0.00775207
0.0327995 0.0355214 0.0088602
0.0293499 0.0350768 0.00717332
0.029739 0.0351935 0.00629149
0.0290945 0.0350003 0.00775207
0.0284178 0.0347975 0.00928561
0.02845 0.0348071 0.00921265
0.031339 0.0362568 0.00359037
0.0322036 0.0365374 0.00365241
0.0327995 0.0367309 0.00369518
0.0357207 0.037679 0.0039048
0.0367035 0.037998 0.00397533
0.0386419 0.0386272 0.00411442
0.031339 0.0361778 0.00392709
0.0316233 0.0360628 0.0048309
0.0325421 0.0356911 0.00775207
0.0327995 0.035587 0.0085704
-0.0621384 0.0337184 -0.00919829
-0.0609823 0.0336163 -0.00893951
-0.063599 0.0337615 -0.00811403
-0.0633943 0.0337584 -0.00831435
-0.0621384 0.0336733 -0.00845738
-0.0611342 0.0336163 -0.008753
-0.063599 0.0337562 -0.00802741
-0.0626243 0.0337009 -0.00831435
-0.0609338 0.0335649 -0.00831435
-0.0615169 0.0334946 -0.00685377
-0.062683 0.0333538 -0.0039326
-0.0606778 0.0335874 -0.00857734
-0.0605009 0.0335602 -0.00685377
-0.0602011 0.0335141 -0.0039326
-0.0599012 0.0334681 -0.00101143
-0.0597513 0.0334451 0.000449151
-0.052148 0.033436 -0.00685377
-0.0519143 0.0334353 -0.00750055
-0.0516203 0.0334345 -0.00831435
-0.0533749 0.0334396 -0.00345734
-0.0532032 0.0334391 -0.0039326
-0.0504537 0.0334558 -0.00864011
-0.0500766 0.0334664 -0.00831435
-0.0489931 0.0334969 -0.00737853
-0.0483856 0.0335139 -0.00685377
-0.0475326 0.0335379 -0.00611696
-0.0466946 0.0335614 -0.00539318
-0.0509778 0.0334529 -0.00831435
-0.0505821 0.0334809 -0.00685377
-0.0497906 0.0335369 -0.0039326
-0.0489991 0.0335928 -0.00101143
-0.0489931 0.0335933 -0.00098935
-0.0329267 0.0385019 -0.0101528
-0.032523 0.0384891 -0.00977493
-0.028545 0.0383633 -0.00605172
-0.0278414 0.038341 -0.00539318
-0.0270844 0.0383171 -0.00468469
-0.0343873 0.0384844 -0.0101947
-0.0373085 0.0383316 -0.00782416
-0.0349046 0.0384574 -0.00977493
-0.0345718 0.0384213 -0.00685377
-0.0343873 0.0384414 -0.00762805
-0.0338757 0.0384972 -0.00977493
-0.035268 0.0383454 -0.0039326
-0.0332236 0.0385039 -0.00977493
-0.0309353 0.0383902 -0.0039326
-0.0080968 0.0388327 -0.00422821
-0.00774878 0.0388331 -0.0039326
-0.00517563 0.038836 -0.00174696
-0.0043097 0.038837 -0.00101143
-0.00371505 0.0388377 -0.000506331
-0.0139391 0.0386897 -0.00436208
-0.011018 0.0387765 -0.00483656
-0.00955738 0.0388199 -0.00507381
-0.00955738 0.0388019 -0.00479873
-0.0139391 0.03847 -0.000999722
-0.0139256 0.038471 -0.00101143
-0.011018 0.0386913 -0.00353239
-0.0105564 0.0387262 -0.0039326
-0.00869905 0.0388073 -0.0039326
-0.00642965 0.0386898 0.00190974
-0.00955738 0.0387833 -0.00394316
-0.011018 0.0386029 0.000523972
-0.00956084 0.0387829 -0.0039326
-0.0114711 0.0385469 0.00190974
-0.0119486 0.0384879 0.00337032
0.000184807 0.0388544 -0.00101143
0.000666705 0.0387099 -0.00121697
0.00304181 0.037998 -0.00222997
0.000666705 0.0378551 0.00141803
0.00241731 0.0378763 -0.00101143
0.000312397 0.0378508 0.00190974
0.013812 0.0349011 0.00315937
0.0140102 0.0350768 0.00322685
0.0152725 0.036196 0.00365665
0.0123514 0.0349712 0.00344063
0.0125404 0.0349027 0.00337032
0.00943021 0.0360301 0.00452716
0.01206 0.0350768 0.00354902
0.00943021 0.0360304 0.00452737
0.0123514 0.0361337 0.0041037
0.0152725 0.036237 0.00368003
0.0167331 0.0362879 0.00474724
0.0168431 0.0362917 0.0048309
0.0181937 0.0363388 0.00585806
0.0187636 0.0363586 0.00629149
0.00796962 0.0353465 0.00599617
0.00650904 0.0351693 0.00645775
0.00703515 0.0352331 0.00629149
0.00943021 0.0355238 0.00553459
0.0116569 0.035794 0.0048309
0.0123514 0.0358783 0.00461143
0.0152725 0.0362329 0.00368827
0.00796962 0.0363263 0.00577739
0.00943021 0.0363089 0.00535928
0.011276 0.0362869 0.0048309
0.0123514 0.0362741 0.00452306
0.0152725 0.0362393 0.00368684
0.00504846 0.0340428 0.00904243
0.00796962 0.0346673 0.00751551
0.00943021 0.0349795 0.00675206
0.00988554 0.0350768 0.00651405
0.0152725 0.0362284 0.00369822
0.0123514 0.035604 0.00522514
0.0131056 0.0357652 0.0048309
0.00650904 0.0343551 0.00827897
0.00751706 0.0345705 0.00775207
0.00588018 0.0339717 0.0106732
0.0104825 0.0350768 0.00726063
0.0152725 0.0362271 0.00370876
0.0123514 0.0355256 0.00587482
0.0137592 0.0358637 0.0048309
0.00650904 0.0341227 0.0102069
0.0098197 0.0349177 0.00775207
0.0152725 0.0362262 0.00371941
0.0123514 0.0354699 0.00653134
0.0141179 0.0359273 0.0048309
0.00650904 0.0339573 0.0121552
0.0108331 0.0350768 0.00799286
0.0110832 0.0351416 0.00775207
0.0160995 0.0362774 0.0048309
0.0180642 0.0363751 0.00775207
0.0181937 0.0363815 0.00794458
0.020029 0.0364727 0.0106732
0.0211149 0.0365267 0.0122877
0.0219938 0.0365704 0.0135944
0.0159026 0.0362479 0.0048309
0.0173707 0.0362713 0.00775207
0.0181937 0.0362843 0.00938978
0.0188387 0.0362946 0.0106732
0.0203068 0.0363179 0.0135944
0.0211149 0.0363307 0.0152023
0.0152725 0.0362252 0.00381065
0.0149155 0.0361249 0.0048309
0.0123514 0.0354047 0.0121575
0.0138931 0.0358378 0.00775207
0.0108261 0.0349764 0.0165156
0.010315 0.0348328 0.0179762
0.0111839 0.0350768 0.0154934
0.0118485 0.0352635 0.0135944
0.0155923 0.0362303 0.0048309
0.0162777 0.0362091 0.00775207
0.0176483 0.0361666 0.0135944
0.0181937 0.0361497 0.015919
0.0183337 0.0361454 0.0165156
0.0186763 0.0361348 0.0179762
0.0152725 0.0362126 0.00395996
0.0151264 0.0361332 0.0048309
0.014636 0.0358671 0.00775207
0.0131798 0.0350768 0.0164278
0.0136554 0.0353349 0.0135944
0.0126748 0.0348028 0.0194367
0.0124296 0.0346697 0.0208973
0.0152725 0.0361948 0.00409177
0.0151875 0.0361174 0.0048309
0.0148516 0.0358115 0.00775207
0.0140449 0.0350768 0.0147658
0.0141796 0.0351995 0.0135944
0.0135077 0.0345876 0.0194367
0.0133397 0.0344346 0.0208973
0.0152725 0.0361512 0.00453777
0.0152562 0.0361215 0.0048309
0.0150935 0.035826 0.00775207
0.0146812 0.0350768 0.0151559
0.0147682 0.0352348 0.0135944
0.0144428 0.0346437 0.0194367
0.0143615 0.0344959 0.0208973
0.0218953 0.0343787 0.00629149
0.0225755 0.0343035 0.00750807
0.0227119 0.0342885 0.00775207
0.0211149 0.0346234 0.00541305
0.0196543 0.0357949 0.00609612
0.0205496 0.0350768 0.00567742
0.0192366 0.03613 0.00629149
0.0196543 0.0359916 0.00673766
0.0211149 0.0352243 0.00737322
0.0213956 0.0350768 0.00749538
0.0219855 0.0347669 0.00775207
0.0225755 0.034457 0.00800877
0.0238974 0.034315 0.00921265
0.024036 0.0343226 0.00936451
0.0225755 0.0348006 0.00886833
0.0223931 0.0350657 0.00921265
0.0223854 0.0350768 0.00922716
0.0357207 0.0369243 0.00712151
0.0378767 0.037998 0.00568263
0.0386419 0.0383791 0.00517199
0.039153 0.0386336 0.0048309
0.0342601 0.036197 0.00809626
0.0347759 0.0364538 0.00775207
0.0399097 0.0389485 0.0048309
0.0386419 0.0378361 0.00960345
0.0388264 0.037998 0.00890897
0.0391337 0.0382677 0.00775207
-0.0643501 0.0337097 -0.00685377
-0.0659553 0.0335715 -0.0039326
-0.063599 0.0337078 -0.00742426
-0.0634713 0.0336517 -0.00685377
-0.0628177 0.0333646 -0.0039326
-0.0256238 0.0383533 -0.00523528
-0.0245222 0.0384323 -0.00685377
-0.0227026 0.0385628 -0.00952707
-0.0256238 0.0383156 -0.00395771
-0.0254352 0.0383202 -0.0039326
-0.0227026 0.0383868 -0.00356869
-0.0212421 0.0384225 -0.00337418
-0.0300056 0.0383619 -0.00315692
-0.028545 0.0383351 -0.00352649
-0.02694 0.0383056 -0.0039326
-0.0263747 0.0382966 -0.0039326
-0.0256238 0.0383047 -0.00180881
-0.0253419 0.0383077 -0.00101143
-0.0248255 0.0383132 0.000449151
-0.0222226 0.0385406 -0.00831435
-0.0216781 0.0385129 -0.00685377
-0.0205891 0.0384575 -0.0039326
-0.00225446 0.0388542 -0.000439994
-0.000793879 0.0388757 -0.000768409
-0.00371505 0.0388133 0.000289057
-0.00383678 0.0388051 0.000449151
-0.00517563 0.0387147 0.0022099
-0.00494739 0.0387301 0.00190974
-0.00328687 0.0387974 0.000449151
-0.00314904 0.0387051 0.00190974
-0.00287339 0.0385205 0.0048309
0.00358787 0.034182 0.00395266
0.00347438 0.0341552 0.0048309
0.00358787 0.0341401 0.00521308
0.00434188 0.0340398 0.00775207
0.00212729 0.0345519 0.00451921
0.00164311 0.0347163 0.0048309
0.00212729 0.0343707 0.00589479
0.00267291 0.0342793 0.0048309
0.00192384 0.0344048 0.00629149
0.000425704 0.0346558 0.00921265
0.000666705 0.0346155 0.00874273
0.00117477 0.0345303 0.00775207
0.00320915 0.0341916 0.0048309
0.00325148 0.0341875 0.00629149
0.00329381 0.0341835 0.00775207
0.00333613 0.0341794 0.00921265
0.00504846 0.0341727 0.0043711
0.0062113 0.0343986 0.0048309
0.00650904 0.0344565 0.00494863
0.00504846 0.0342585 0.00457178
0.00520189 0.0343733 0.0048309
0.00614284 0.0350768 0.00641997
0.00487996 0.0341255 0.0048309
0.00480527 0.03403 0.00775207
0.00796962 0.0349086 0.0052627
0.00818853 0.0350768 0.00515245
0.00882691 0.0355675 0.0048309
0.00640452 0.0350768 0.00640459
0.00650904 0.0350445 0.0063229
0.00654922 0.0350321 0.00629149
0.00772585 0.0350768 0.00550413
0.00796962 0.0363106 0.00573047
0.00906113 0.0361011 0.0048309
0.0196543 0.0362733 0.00744256
0.0198712 0.0362454 0.00775207
0.0211149 0.0360851 0.00952701
0.0195238 0.0364032 0.00775207
0.0208039 0.0364877 0.0106732
0.0211149 0.0365082 0.0113829
0.0220841 0.0365722 0.0135944
0.0329924 0.035537 0.00921265
0.033393 0.0355536 0.0106732
0.0337312 0.03584 0.00921265
0.0342601 0.0360417 0.00936343
0.0355602 0.0365374 0.00973403
0.0357207 0.0365986 0.0097798
0.0371813 0.0371556 0.0101962
0.0284178 0.0347251 0.010453
0.0298784 0.0349871 0.00997754
0.0303788 0.0350768 0.00981463
0.0327995 0.0355111 0.00902653
-0.0788845 0.111459 0.0457272
-0.0782048 0.111411 0.04582
-0.0767442 0.111309 0.0460194
-0.0795664 0.111702 0.0457272
-0.0795938 0.112488 0.0460975
-0.0782048 0.110426 0.0443726
-0.0780912 0.110335 0.0442667
-0.0789592 0.111027 0.0450756
-0.0837211 0.113948 0.0470525
-0.0796654 0.111568 0.0456711
-0.081126 0.112425 0.0461686
-0.0798301 0.111665 0.0457272
-0.0533749 0.0334406 -0.00337161
-0.0519143 0.0334921 -0.00252428
-0.0493065 0.033584 -0.00101143
-0.0489931 0.0335951 -0.000829643
-0.0562961 0.0334131 -0.00231462
-0.0558709 0.033417 -0.00247202
-0.0548355 0.0334265 -0.00285528
-0.0533749 0.0334398 -0.00333243
-0.0529672 0.0334407 -0.00247202
-0.052275 0.0334423 -0.00101143
-0.0519143 0.0334432 -0.000250276
-0.0508907 0.0334456 0.00190974
-0.0504537 0.0334466 0.00283187
-0.0501986 0.0334472 0.00337032
-0.0533749 0.0334411 -0.00322572
-0.0532548 0.0334476 -0.00247202
-0.0530222 0.0334603 -0.00101143
-0.0525568 0.0334856 0.00190974
-0.0519143 0.0335205 0.00594295
-0.0516261 0.0335362 0.00775207
-0.047335 0.0335738 -0.0039326
-0.0488333 0.0335953 -0.00101143
-0.0465753 0.0335918 -0.0039326
-0.0464835 0.0336511 -0.00101143
-0.0464376 0.0336807 0.000449151
-0.0383374 0.037998 -0.00672691
-0.0382927 0.038097 -0.00685377
-0.0398372 0.0346785 -0.00247202
-0.0396572 0.0350768 -0.00298259
-0.0393223 0.035818 -0.0039326
-0.0410944 0.0338478 -0.00101143
-0.0402296 0.0342647 -0.0018494
-0.0394329 0.0342272 -0.00101143
-0.0380052 0.0337882 0.00190974
-0.0391876 0.0350768 -0.00225278
-0.0373085 0.0367297 -0.00261158
-0.0358666 0.037998 -0.00288689
-0.0358479 0.0380144 -0.00289046
-0.0387691 0.0349515 -0.00156914
-0.038501 0.0350768 -0.00144946
-0.03752 0.0355356 -0.00101143
-0.0373085 0.0356345 -0.00091698
-0.0343873 0.0370004 0.000387346
-0.0322538 0.037998 0.00133995
-0.0380505 0.0382867 -0.00685377
-0.0373085 0.0382964 -0.00571975
-0.036139 0.0383117 -0.0039326
-0.0358479 0.0383155 -0.00348767
-0.0197815 0.0384672 -0.00335135
-0.0153997 0.0386461 -0.00412468
-0.0168603 0.0385865 -0.0038669
-0.016488 0.0386017 -0.0039326
-0.0197815 0.0384422 -0.00297921
-0.0168603 0.0384292 -0.00153406
-0.0158039 0.0384246 -0.00101143
-0.0153997 0.0384228 -0.000811485
-0.0241632 0.0383324 -5.05165e-05
-0.023015 0.038366 -0.00101143
-0.0247603 0.0383149 0.000449151
-0.0212421 0.038418 -0.00249517
-0.0227026 0.0383752 -0.00127284
-0.0212697 0.0384172 -0.00247202
-0.0204411 0.0384266 -0.00247202
-0.0206376 0.038393 -0.00101143
-0.0210308 0.0383257 0.00190974
-0.0214239 0.0382584 0.0048309
-0.0216205 0.0382247 0.00629149
-0.0199387 0.0384387 -0.00247202
-0.0197815 0.0384364 -0.00216279
-0.0191962 0.0384277 -0.00101143
-0.0177113 0.0384056 0.00190974
-0.0168603 0.038393 0.0035839
-0.0162264 0.0383836 0.0048309
-0.0153473 0.0386347 -0.0039326
-0.0147325 0.0384556 -0.00101143
-0.0142321 0.0384217 0.000449151
-0.0139391 0.0384236 0.00112653
-0.0136004 0.0384258 0.00190974
-0.0129686 0.0384299 0.00337032
-0.0124785 0.0384331 0.00450322
-0.0148571 0.0384134 0.000449151
-0.0152759 0.0384034 0.00190974
-0.0161133 0.0383835 0.0048309
0.000257772 0.037998 0.00152969
0.000176776 0.038384 0.000449151
0.00028626 0.0378622 0.00190974
-0.000793879 0.0387506 0.0012106
-0.000490903 0.0387989 0.000449151
-0.00107206 0.0387062 0.00190974
-0.00225446 0.0385176 0.00488137
-0.00223438 0.0385208 0.0048309
-0.000473959 0.037998 0.00299302
-0.00225446 0.0383424 0.00544528
-0.00180838 0.0382561 0.0048309
0.000501383 0.0365374 0.00355036
0.000477569 0.0366845 0.00337032
0.000666705 0.0355166 0.00480024
0.000737934 0.0350768 0.00533875
0.000670761 0.0354916 0.0048309
0.00650904 0.0353419 0.00641919
0.00679337 0.0355459 0.00629149
0.00614724 0.0350768 0.00668057
0.00504846 0.0342051 0.0086795
0.00555825 0.0346096 0.00775207
0.024036 0.0346127 0.00993817
0.0225755 0.0355005 0.0102526
0.0232724 0.0350768 0.0101025
0.0245734 0.0344153 0.0106732
0.0249244 0.0346573 0.0135944
0.0254966 0.0344294 0.0100903
0.0269572 0.0345477 0.010442
0.0240284 0.0347951 0.0106732
0.024036 0.0347874 0.010659
0.0237486 0.0350768 0.0111942
0.0224598 0.0363749 0.0135944
0.0222984 0.0365374 0.0138949
0.0342601 0.0358 0.0117528
0.0357207 0.0364424 0.0113247
0.0359368 0.0365374 0.0112613
0.0371813 0.0370847 0.0108966
0.0379432 0.0374198 0.0106732
0.0279306 0.0346356 0.0106732
0.0298784 0.0349485 0.0110877
0.0306771 0.0350768 0.0112577
0.0327995 0.0354179 0.0117094
0.034177 0.0357734 0.0121338
0.0342601 0.0358118 0.012176
0.0357207 0.0364868 0.0129176
0.0358304 0.0365374 0.0129732
0.0327995 0.0354609 0.0127085
0.0334684 0.0355375 0.0121338
0.031339 0.0352937 0.0139634
0.0317685 0.0353429 0.0135944
0.0383003 0.0375798 0.0106732
0.0371813 0.037123 0.0122685
0.0372757 0.0371615 0.0121338
0.0384182 0.0376416 0.0106732
0.0386419 0.0378528 0.0118279
0.0387957 0.037998 0.0126221
0.038984 0.0381758 0.0135944
0.039267 0.038443 0.015055
0.0386419 0.0377446 0.0106665
0.0386554 0.0377515 0.0106732
0.0391387 0.037998 0.0109157
0.0415631 0.0392347 0.0121316
0.0444794 0.0407223 0.0135944
0.0444842 0.0407247 0.0135968
-0.0483741 0.0336163 -0.000498266
-0.0475326 0.033645 -5.11398e-05
-0.0465909 0.0336771 0.000449151
-0.0489931 0.0335871 -0.000460114
-0.0493513 0.0335191 0.00190974
-0.049572 0.0334771 0.00337032
-0.0402296 0.0337324 0.000183231
-0.0384076 0.0336963 0.00190974
-0.0461202 0.0336867 0.000449151
-0.046072 0.0336874 0.000436465
-0.0431508 0.0337277 -0.000332152
-0.0416902 0.0337479 -0.00071646
-0.0415368 0.0336163 0.00171981
-0.0414135 0.0336848 0.000449151
-0.0416902 0.033531 0.00330058
-0.0415553 0.033606 0.00190974
-0.041697 0.0335272 0.00337032
-0.0416902 0.0337298 -0.000405321
-0.0431508 0.0336438 0.00111503
-0.0425111 0.0336815 0.000449151
-0.046072 0.0334716 0.00415574
-0.0439143 0.0335988 0.00190974
-0.0416902 0.0334975 0.00395464
-0.0390877 0.0336163 0.00309314
-0.0387691 0.0336308 0.00298767
-0.0402296 0.0335641 0.00347116
-0.039925 0.033578 0.00337032
-0.0373085 0.0336874 0.00295185
-0.0353293 0.0337208 0.0048309
-0.0320806 0.037998 0.00158451
-0.0373085 0.0339521 0.00255502
-0.0358551 0.0350768 0.00228522
-0.0343873 0.0362128 0.00201273
-0.0338325 0.0366422 0.00190974
-0.0378515 0.0336785 0.00337032
-0.0382281 0.0336726 0.0048309
-0.0389811 0.0336608 0.00775207
-0.0343873 0.0383318 -0.00296946
-0.0314661 0.0383628 -0.00300269
-0.0351029 0.0383073 -0.00247202
-0.0343873 0.0382846 -0.00159953
-0.033905 0.0382692 -0.00101143
-0.0329267 0.0382381 0.000181286
-0.032707 0.0382311 0.000449151
-0.0304802 0.0383622 -0.00247202
-0.030224 0.0383348 -0.00101143
-0.0300056 0.0383114 0.000234048
-0.0299678 0.0383074 0.000449151
-0.0300056 0.0383665 -0.00266667
-0.0296853 0.0383632 -0.00247202
-0.028545 0.0383516 -0.00177881
-0.0272826 0.0383387 -0.00101143
-0.0256238 0.0383217 -3.07328e-06
-0.0248799 0.0383141 0.000449151
-0.0307226 0.0383521 -0.00247202
-0.0315197 0.0382432 0.000449151
-0.0314661 0.0382505 0.000252908
-0.0311211 0.0382977 -0.00101143
-0.00663621 0.0386285 0.00398901
-0.00608127 0.0386562 0.00337032
-0.00870148 0.0385251 0.00629149
-0.0080968 0.0385553 0.00561735
-0.00739137 0.0385907 0.0048309
-0.00574367 0.0386508 0.00337032
-0.00517563 0.0386105 0.00389392
-0.00415914 0.0385383 0.0048309
-0.00371505 0.0385068 0.00524026
-0.011018 0.0384825 0.00439235
-0.00663621 0.0386387 0.00336578
-0.0080968 0.0385866 0.00370797
-0.00665558 0.038638 0.00337032
-0.00589934 0.0386588 0.00337032
-0.00564958 0.0386148 0.0048309
-0.00517563 0.0385313 0.00760255
-0.00515006 0.0385268 0.00775207
-0.0049003 0.0384828 0.00921265
0.00358787 0.0341455 0.0097014
0.00471348 0.0339906 0.00921265
0.00476507 0.0339846 0.00921265
0.00455366 0.0340826 0.0106732
0.00477303 0.0339808 0.00921265
0.00504802 0.0338462 0.0106732
0.00504846 0.033846 0.0106756
0.0217826 0.0360431 0.0106732
0.0221981 0.0365204 0.0135944
0.022213 0.0365374 0.0136989
0.0269572 0.0346395 0.0116624
