-0.0937808 0.121028 0.0135944
-0.0927965 0.122712 0.00972544
-0.0941086 0.122712 0.0157859
-0.09402 0.125543 0.0165156
-0.0940172 0.125633 0.0165387
-0.0943602 0.121456 0.0165156
-0.0945597 0.122712 0.0180245
-0.0947465 0.123887 0.0194367
-0.0928107 0.115714 0.0146954
-0.0931534 0.11687 0.0148151
-0.0940199 0.119791 0.0151178
-0.0637642 0.154845 -0.0384135
-0.063599 0.155469 -0.0387376
-0.063472 0.15595 -0.0389866
-0.0629918 0.157766 -0.0399285
-0.063599 0.154536 -0.0374039
-0.0633413 0.154845 -0.0369574
-0.0628265 0.155461 -0.0360654
-0.0676586 0.150912 -0.0419078
-0.0665201 0.151894 -0.040714
-0.0664862 0.151924 -0.0406784
-0.0648728 0.153316 -0.0389866
-0.0650817 0.15408 -0.0419078
-0.0642368 0.154098 -0.0389866
-0.0665201 0.150984 -0.0382812
-0.065749 0.151924 -0.0382053
-0.064795 0.151924 -0.0358973
-0.0647291 0.152096 -0.0360654
-0.063599 0.153884 -0.0363827
-0.0635294 0.153841 -0.0360654
-0.062889 0.15345 -0.0331443
0.0600658 0.0584462 0.0171034
0.0602704 0.0587497 0.0165156
0.0590901 0.0569982 0.0199071
0.0592538 0.0572412 0.0194367
0.060548 0.0591374 0.0135944
0.0602577 0.0613674 0.00771712
0.0602631 0.061347 0.00775207
0.0607186 0.0596436 0.0106732
0.0608776 0.0613674 0.0112152
0.0607947 0.0613674 0.012764
0.0608058 0.0622773 0.0135944
0.0608302 0.0642885 0.0154298
0.0532477 0.0550467 -0.0021651
0.0543055 0.0584462 -0.00191882
0.0532477 0.0546235 -0.00201829
0.0566508 0.0584462 0.00124214
0.0573476 0.0592289 0.00190974
0.0473368 0.0496827 -0.00412168
0.0474054 0.0497393 -0.00409875
0.0479021 0.0501494 -0.0039326
0.0503266 0.0521513 -0.00312164
0.0508747 0.0526039 -0.00293829
0.0503266 0.0549244 -0.00427256
0.0507752 0.0548372 -0.0039326
0.0530709 0.055525 -0.00240568
0.053137 0.0584462 -0.00290626
0.028846 0.0542726 -0.0185384
0.0298784 0.054451 -0.0168028
0.0305835 0.0545729 -0.0156173
0.0309629 0.055525 -0.0151185
0.0307167 0.0560232 -0.0156173
0.0320843 0.055525 -0.0140159
0.0327995 0.0563391 -0.0137321
0.0289211 0.0550909 -0.0185384
0.0290911 0.055525 -0.0183161
0.0298784 0.0575356 -0.0172867
0.0269572 0.0550797 -0.0203428
0.026108 0.055525 -0.0210543
-0.0168603 0.0940454 -0.0340138
-0.0177453 0.0945225 -0.0331443
-0.0168603 0.0955274 -0.0317898
-0.0227026 0.0928386 -0.0338052
-0.0197815 0.0933847 -0.0341989
-0.0191635 0.0935002 -0.0342822
-0.0227026 0.0906946 -0.0357885
-0.0197815 0.0927465 -0.0347893
-0.0187085 0.0935002 -0.0344222
-0.0197815 0.0942377 -0.0329726
-0.019629 0.0941612 -0.0331443
-0.017554 0.09175 -0.0360654
-0.018482 0.0935002 -0.0344714
-0.0647 0.06298 0.0252791
-0.0650448 0.0642885 0.027581
-0.0651376 0.0646405 0.0282002
-0.0655752 0.0663011 0.0311214
-0.0665201 0.0676003 0.0321791
-0.0662212 0.0672097 0.0318914
-0.0684568 0.0701306 0.0340426
-0.0694413 0.0714169 0.0349899
-0.068457 0.0701309 0.0340427
-0.063599 0.066348 0.0324274
-0.0675034 0.0658603 0.0282002
-0.0665201 0.0661391 0.0297999
-0.0657078 0.0663695 0.0311214
-0.0694413 0.0683236 0.0307709
-0.0672179 0.0672097 0.0310743
-0.0668727 0.0670367 0.0311214
-0.0665201 0.0668601 0.0311695
0.0415631 0.0908508 -0.00854109
0.0417739 0.090579 -0.00836091
0.0373923 0.0870799 -0.0156173
0.037858 0.0876579 -0.0147669
0.0405918 0.091051 -0.00977493
0.0354794 0.0913416 -0.0156173
0.0357207 0.0913514 -0.0153291
0.0403719 0.0915411 -0.00977493
-0.0764854 0.149002 -0.00896719
-0.0763132 0.149464 -0.00977493
-0.0760921 0.150014 -0.00977493
-0.0761328 0.149002 -0.0108366
-0.0761892 0.150082 -0.0126961
-0.081288 0.0974341 -0.00685377
-0.081126 0.09745 -0.00704768
-0.0840472 0.0971636 -0.00355184
-0.083729 0.0971948 -0.0039326
-0.0812803 0.0976481 -0.00685377
-0.081126 0.0975006 -0.0070455
-0.0830533 0.0993425 -0.00465125
-0.0840472 0.100292 -0.00341661
-0.0836318 0.0998954 -0.0039326
-0.0796266 0.0951934 -0.00977493
-0.0804148 0.0964214 -0.00832511
-0.0808517 0.0993425 -0.00690869
-0.0807884 0.0998704 -0.00685377
-0.0805016 0.102264 -0.00660476
-0.0814665 0.0964214 -0.00702128
-0.0822427 0.0943564 -0.00685377
-0.081126 0.0973271 -0.00709476
0.0451438 0.0921518 0.0135944
0.0448263 0.0935002 0.0146364
0.060295 0.0590227 0.0165156
0.0602021 0.0613674 0.017523
0.0600865 0.0642885 0.018778
0.0600258 0.0658217 0.0194367
0.0605261 0.0613674 0.016269
0.0607791 0.0642885 0.0160976
0.0553503 0.0598896 -0.00101143
0.0561689 0.0599054 8.64275e-05
0.0575285 0.0599316 0.00190974
0.0545754 0.0613674 -0.00130316
0.0544753 0.062216 -0.00101143
0.0532477 0.0599298 -0.00309527
-0.0915727 0.118524 0.0282002
-0.091958 0.119791 0.0284935
-0.0907802 0.11687 0.027996
0.0355646 0.0566115 -0.00977493
0.0357207 0.0560726 -0.00900675
0.0358794 0.055525 -0.00822607
0.0362376 0.0547182 -0.00685377
0.0369018 0.055525 -0.00640092
0.0363771 0.055525 -0.00741041
0.0371131 0.0584462 -0.00898101
0.0374852 0.0599228 -0.00977493
0.0346135 0.0526039 -0.00692019
0.0357207 0.0540511 -0.00691752
0.0368178 0.0526039 -0.0066733
0.036319 0.0540899 -0.00685377
0.0357207 0.0580135 -0.0108519
0.0360211 0.0584462 -0.0107708
0.0345953 0.0580598 -0.0126961
0.0341546 0.0526039 -0.00754116
0.0349188 0.055766 -0.00977493
0.0316772 0.0578562 -0.0156173
0.0327995 0.0579953 -0.0145853
0.0298442 0.0584462 -0.0178112
0.0297504 0.0594642 -0.0185384
0.0298784 0.0580749 -0.017546
0.0305709 0.0584462 -0.0172379
0.0269572 0.0560759 -0.0201907
0.0286122 0.056949 -0.0185384
0.0298784 0.0576171 -0.0172743
-0.028545 0.0354298 0.0520955
-0.0256238 0.0362051 0.0536799
-0.028545 0.0366025 0.0534603
-0.0314661 0.0358266 0.0507979
-0.029637 0.0354114 0.0515696
-0.028829 0.0350768 0.0506778
-0.0290327 0.035243 0.0515696
-0.0256238 0.0350042 0.0516738
-0.028545 0.0352422 0.0517821
-0.0265151 0.0350768 0.0517068
0.0590901 0.0610412 0.00466634
0.059175 0.0611255 0.0048309
0.0594186 0.0613674 0.00530321
0.0580463 0.0613674 0.00285773
0.0581802 0.0642885 0.00355626
0.0577051 0.0613674 0.0023264
0.0571405 0.0642885 0.00193728
0.0571006 0.0644953 0.00190974
0.0561689 0.0619275 0.001099
0.0566796 0.0613674 0.00149854
0.0572053 0.0607909 0.00190974
-0.0912053 0.125633 0.00655788
-0.0919988 0.124151 0.00775207
-0.0898895 0.127163 0.00484695
-0.0898763 0.127174 0.0048309
-0.0913248 0.128325 0.00775207
-0.0913833 0.128554 0.00795771
-0.0898895 0.130393 0.00475395
-0.0896402 0.131475 0.00442594
-0.0903132 0.128554 0.00531137
-0.089948 0.130139 0.0048309
0.0386419 0.0584041 -0.00551656
0.0386603 0.0584462 -0.00551179
0.0378789 0.0578064 -0.00685377
0.0378493 0.0584462 -0.00756477
0.0377574 0.060435 -0.00977493
0.0369194 0.0526039 -0.00661344
0.0376258 0.055525 -0.00597447
0.0386419 0.0562678 -0.00579972
0.0386419 0.0574124 -0.0053133
-0.0619661 0.169852 -0.0535924
-0.0627047 0.170503 -0.0506713
-0.0617879 0.168058 -0.0535924
-0.0615654 0.169451 -0.0551563
-0.0616179 0.166529 -0.0573617
-0.0615946 0.167694 -0.0565136
-0.0615594 0.169451 -0.0552349
-0.0617905 0.154619 -0.0185384
-0.0619011 0.154845 -0.0176371
-0.0622139 0.151924 -0.0162012
-0.0621131 0.154845 -0.0160462
-0.0622648 0.155388 -0.0156173
-0.0625029 0.163608 -0.0463967
-0.0624102 0.166529 -0.0475255
-0.0623917 0.167111 -0.0477501
-0.0624467 0.162431 -0.0448289
-0.0625323 0.160687 -0.0430348
-0.0625434 0.161619 -0.0448289
-0.0625253 0.160101 -0.0419078
-0.0629767 0.160687 -0.0458804
0.0603071 0.0625521 0.00775207
0.060873 0.063874 0.0106732
0.0600608 0.06392 0.00775207
0.0600567 0.0642885 0.00797843
0.0600245 0.0672097 0.00977268
0.0587869 0.0655169 0.0048309
0.0590901 0.0646995 0.00524238
0.0592425 0.0642885 0.00544926
0.0379119 0.0608284 -0.00977493
0.0386419 0.0604708 -0.0075714
0.0388796 0.0603543 -0.00685377
0.0400067 0.0613674 -0.00487415
0.0394663 0.0613674 -0.00626104
0.0395167 0.0621647 -0.00685377
0.04072 0.0612829 -0.0039326
0.0415631 0.0620271 -0.00305333
0.0395711 0.0584462 -0.00484888
0.0347346 0.0584462 -0.0128301
0.034894 0.0585774 -0.0126961
0.0357207 0.0592575 -0.0120014
0.0357207 0.0628715 -0.0130906
0.0372694 0.0613674 -0.0109516
0.0360063 0.0625941 -0.0126961
0.0376703 0.0613674 -0.0105539
0.0372512 0.0642885 -0.0121389
0.0371039 0.0653153 -0.0126961
0.0380087 0.0613674 -0.010014
0.0382309 0.0617348 -0.00977493
0.0386419 0.0624145 -0.00933262
0.0344737 0.0584462 -0.013114
0.0349573 0.0613674 -0.0134682
0.0327995 0.0603157 -0.0165116
0.034241 0.0584462 -0.013486
0.0332256 0.0597631 -0.0156173
0.0254655 0.0584462 -0.0235931
0.0269572 0.0592753 -0.0221147
0.0276182 0.0596426 -0.0214596
0.0298784 0.0607621 -0.0192702
0.0308087 0.0607654 -0.0185384
0.0269572 0.0609983 -0.0224872
0.0278663 0.0609177 -0.0214596
0.0296499 0.0613674 -0.0195492
0.0269572 0.0569324 -0.0206991
0.0280143 0.0584462 -0.0202111
0.0251735 0.0584462 -0.0239175
0.0238091 0.0526039 -0.0229626
0.024036 0.0536498 -0.0231623
0.0244429 0.055525 -0.0235204
0.0259 0.0558695 -0.0214596
0.0231671 0.055525 -0.0253103
0.024036 0.0567774 -0.0247115
0.0245161 0.0574693 -0.0243808
0.024036 0.0583685 -0.0249658
0.0246541 0.0582633 -0.0243808
0.0235793 0.0584462 -0.0253981
-0.0616206 0.154845 -0.023114
-0.061596 0.157766 -0.0229964
-0.0617159 0.154845 -0.0194287
-0.0616463 0.156658 -0.0214596
-0.0616037 0.157766 -0.0227004
-0.063599 0.0625652 0.0250573
-0.0626191 0.0624174 0.0252791
-0.0606778 0.0621246 0.0257185
-0.0577566 0.0616839 0.0263798
-0.0680272 0.0617999 0.0194367
-0.0665201 0.0622087 0.0218276
-0.0661859 0.0622994 0.0223579
-0.0640752 0.0627622 0.0252791
-0.063599 0.0627975 0.0256689
-0.0606778 0.0630138 0.0280603
-0.0605069 0.0630265 0.0282002
-0.0644525 0.0629007 0.0252791
-0.063599 0.0637572 0.0274496
-0.0633038 0.0640533 0.0282002
-0.0630694 0.0642885 0.0287964
-0.0621551 0.0652059 0.0311214
-0.0656054 0.0634468 0.0252791
-0.0667346 0.0642885 0.0258074
-0.0642462 0.0613674 0.0219415
-0.0643019 0.0615629 0.0223579
-0.0522981 0.146081 0.0182928
-0.0523819 0.14789 0.0194367
-0.0531136 0.145611 0.0223579
-0.0530005 0.146081 0.0219522
-0.0519143 0.148714 0.0174574
-0.0517178 0.148787 0.0165156
-0.0523273 0.148559 0.0194367
-0.0526749 0.149002 0.0209599
-0.0530038 0.149595 0.0223579
-0.0524082 0.149002 0.0191416
-0.0523961 0.150786 0.0165156
-0.0524095 0.148802 0.0194367
0.0587729 0.0651031 0.0223579
0.0590901 0.0653307 0.0216336
0.0583506 0.0672097 0.0215959
0.0585094 0.065754 0.0223579
0.0561689 0.0674954 0.0240689
0.0564438 0.0672097 0.0239211
0.0610291 0.0642885 0.0117134
0.0609466 0.0645863 0.0135944
0.0610304 0.0642885 0.0115165
0.0603453 0.0672097 0.0109385
0.0600309 0.06855 0.0106732
-0.0864162 0.108106 0.0115582
-0.0866075 0.107691 0.0135944
-0.0865325 0.105185 0.0073177
-0.0865096 0.105482 0.00775207
-0.0863558 0.107484 0.0106732
-0.0884711 0.102264 0.00991327
-0.0873185 0.105185 0.0104633
-0.0869683 0.106072 0.0106304
-0.0868785 0.1063 0.0106732
0.0401299 0.0639025 -0.00685377
0.0412889 0.0642885 -0.00393431
0.0412911 0.0642966 -0.0039326
0.0415631 0.065303 -0.00371953
0.0411761 0.0642885 -0.00435598
0.0415631 0.0678709 -0.00577158
0.0418071 0.0701309 -0.00666464
0.0411708 0.0633802 -0.0039326
0.0415631 0.0621795 -0.00309551
0.0411994 0.0636954 -0.0039326
0.0415631 0.0640719 -0.00338175
0.0417723 0.0642885 -0.00306485
0.043128 0.065692 -0.00101143
0.0412525 0.0636193 -0.0039326
0.0415631 0.0636717 -0.00362739
0.0327995 0.0610855 -0.0168085
0.0331147 0.0613674 -0.0164136
0.03375 0.0619357 -0.0156173
0.0357207 0.064003 -0.0135434
0.0359013 0.0642885 -0.0134786
0.0350989 0.0642885 -0.0143314
0.0347335 0.0663062 -0.0156173
0.0298784 0.0622843 -0.0195195
0.0314359 0.0613674 -0.0181433
0.0309887 0.0616306 -0.0185384
0.0324165 0.0613674 -0.017417
0.0322607 0.0642885 -0.0182413
0.0326677 0.0613674 -0.017115
0.0327995 0.0617255 -0.0170346
0.033743 0.0642885 -0.0164592
0.0269572 0.0611173 -0.0225079
0.0274886 0.0613674 -0.0219589
0.0279719 0.0615948 -0.0214596
0.026884 0.0613674 -0.0225423
0.0269572 0.0615514 -0.0224449
0.0276987 0.0634142 -0.0214596
0.0280466 0.0642885 -0.0209971
0.0267217 0.0613674 -0.0226848
0.0265305 0.0642885 -0.0223286
0.024036 0.0591101 -0.0250434
0.024811 0.0596557 -0.0243808
0.0265204 0.0613674 -0.0228195
0.0246497 0.0642885 -0.0235871
-0.0482224 0.136547 0.0106732
-0.0479325 0.13617 0.0135944
-0.0489931 0.138206 0.00756986
-0.0485992 0.137318 0.00886877
-0.0489379 0.138081 0.00775207
-0.0477398 0.135517 0.0106732
-0.052598 0.145011 0.0194367
-0.0531295 0.145399 0.0223579
-0.0519563 0.146081 0.0166027
-0.0519274 0.146219 0.0165156
-0.0519143 0.146281 0.0164759
-0.0523424 0.14316 0.019464
-0.052341 0.143181 0.0194367
-0.0519143 0.144282 0.0172349
-0.0511349 0.14316 0.016718
0.0607299 0.0651116 0.0165156
0.0600367 0.065975 0.0194367
0.0599499 0.0672097 0.0179825
0.0598838 0.0683724 0.0165156
0.0600154 0.0660571 0.0194367
0.0590901 0.0677474 0.0199019
0.0593754 0.0672097 0.0197822
0.0603333 0.0672097 0.0127683
0.0600115 0.0686324 0.0106732
0.0604602 0.0666486 0.0135944
0.0603594 0.0672097 0.0154324
0.0298784 0.0626105 -0.0195986
0.0314407 0.0642885 -0.0188487
0.0320871 0.0649828 -0.0185384
0.029234 0.0642885 -0.0198515
-0.0930213 0.128554 0.0129149
-0.0928107 0.12954 0.0129032
-0.0928593 0.125344 0.0106732
-0.0929121 0.125633 0.0109776
-0.0928107 0.125078 0.0103924
-0.0933745 0.127369 0.0135944
-0.0939192 0.12687 0.0165156
-0.0931033 0.128204 0.0135944
-0.0930317 0.128554 0.0139189
-0.0928107 0.129638 0.0149219
-0.0924594 0.131361 0.0165156
-0.092436 0.131475 0.0166218
-0.0928107 0.128504 0.0119039
-0.0927888 0.128554 0.011853
-0.0922823 0.12973 0.0106732
-0.081126 0.144942 -0.000664662
-0.0809253 0.144029 -0.00101143
-0.0813764 0.146081 -0.000231836
-0.081126 0.146482 -0.00037871
-0.0802574 0.14721 -0.00101143
-0.0822124 0.147577 0.00190974
-0.0827421 0.145602 0.00190974
-0.0817477 0.146081 0.000354637
-0.0626554 0.169451 -0.0494706
-0.0623512 0.166529 -0.0468247
-0.0623856 0.167206 -0.0477501
-0.0622027 0.163608 -0.042827
-0.0622771 0.165071 -0.0448289
-0.0621293 0.166893 -0.0506713
0.0444842 0.0904629 -0.00125739
0.0447438 0.0876579 -0.00136038
0.0444735 0.090579 -0.00125312
0.0435535 0.0894099 -0.0039326
0.0443507 0.090579 -0.00156802
0.0444255 0.0910737 -0.00101143
0.0441847 0.0935002 0.000691396
0.0440125 0.0952363 0.00190974
-0.0431508 0.147803 0.00417135
-0.0411729 0.149002 0.00328358
-0.0402296 0.149573 0.00285853
-0.0391311 0.149912 0.00190974
0.0435952 0.0890194 -0.0039326
0.0444842 0.0877209 -0.0020087
0.0445274 0.0876579 -0.00191527
0.0434927 0.0818155 -0.0035829
0.044178 0.0847367 -0.00240464
0.0444842 0.0860419 -0.00187821
0.0448281 0.0872268 -0.00101143
0.045235 0.0866979 0.00190974
0.0456419 0.086169 0.0048309
0.0446686 0.0847367 0.00043275
0.0447557 0.0867798 -0.00101143
0.0584724 0.0670232 0.0048309
0.058649 0.0672097 0.00550039
0.0590901 0.0676754 0.00717229
0.059243 0.0678368 0.00775207
0.0600076 0.0686506 0.0106732
0.0598589 0.0694881 0.0135944
0.0587028 0.0692615 0.00775207
0.0590901 0.0690787 0.00861275
0.0590901 0.0699787 0.0104238
0.0589853 0.0701309 0.0103975
-0.0866537 0.108106 0.0139516
-0.0866254 0.108382 0.0135944
-0.0865432 0.108952 0.0135944
-0.0864705 0.108802 0.0165156
-0.0867421 0.109829 0.0106732
-0.0874869 0.110323 0.0135944
-0.0869683 0.109576 0.0131514
0.0372132 0.0658706 -0.0126961
0.0386419 0.0648028 -0.010082
0.0393299 0.0642885 -0.00882311
0.0388097 0.0646773 -0.00977493
0.037639 0.0669186 -0.0126961
0.0378475 0.0672097 -0.0125695
0.0386419 0.0683187 -0.012087
0.0348913 0.0666832 -0.0156173
0.0357207 0.066426 -0.0146213
0.0368883 0.0672097 -0.0134841
0.0327995 0.0655134 -0.0178606
0.0298784 0.0658285 -0.019522
0.0320776 0.0651635 -0.0185384
0.0313061 0.0672097 -0.0190133
0.0321111 0.0653629 -0.0185384
0.0327995 0.0666734 -0.0179329
0.0330011 0.0672097 -0.017745
-0.0736465 0.151924 -0.0333403
-0.0735477 0.152373 -0.0331443
-0.0723625 0.155955 -0.0352826
-0.0729342 0.154845 -0.0327212
-0.0728398 0.155028 -0.0331443
-0.0743636 0.151924 -0.0301242
-0.0743005 0.152053 -0.0302231
-0.0732691 0.154674 -0.0302231
-0.0735871 0.154777 -0.0273019
-0.0730844 0.154845 -0.0320161
-0.0734016 0.157613 -0.0302231
-0.0706171 0.181135 -0.0562934
-0.0723625 0.18076 -0.0553018
-0.070959 0.181135 -0.0535924
-0.0709585 0.181135 -0.0535896
-0.0723625 0.179378 -0.0556134
-0.0694413 0.178763 -0.0577896
-0.0688806 0.178214 -0.0581912
-0.0712225 0.180508 -0.0565136
-0.0694413 0.180883 -0.0573536
-0.0711254 0.180751 -0.0565136
-0.062561 0.169451 -0.050841
-0.0626371 0.169822 -0.0506713
-0.0636907 0.175293 -0.0535157
-0.0637123 0.175406 -0.0535924
-0.063599 0.174812 -0.0531899
-0.0631339 0.172372 -0.0515378
-0.06289 0.171092 -0.0506713
-0.0641662 0.172372 -0.0494336
-0.063599 0.171632 -0.0498015
-0.064218 0.170084 -0.0448289
-0.063599 0.170299 -0.0472152
-0.0634602 0.170348 -0.0477501
-0.061665 0.154674 -0.0214596
-0.0624028 0.151924 -0.0260902
-0.0619535 0.153575 -0.0243808
-0.0623055 0.151924 -0.0216854
-0.0624135 0.15147 -0.0214596
0.0582428 0.0672097 0.00440065
0.0581434 0.0678909 0.0048309
0.0579753 0.0672097 0.00400261
0.0569419 0.0659682 0.00190974
0.0390423 0.0672097 -0.0108927
0.0395933 0.0642885 -0.00845352
0.0392948 0.0658711 -0.00977493
0.0397163 0.0642885 -0.00820739
0.0415631 0.069588 -0.0069394
0.0417522 0.0701309 -0.00680951
0.0400806 0.069305 -0.00977493
0.0414525 0.0701309 -0.00740902
0.0415631 0.0701974 -0.00721834
0.0417745 0.0703247 -0.00685377
0.0380909 0.0686566 -0.0126961
0.0386419 0.0685573 -0.0121461
0.0395978 0.0701309 -0.0106011
0.0400746 0.0710796 -0.00977493
0.0415631 0.0740412 -0.00719606
0.0417606 0.0744343 -0.00685377
0.0386419 0.0714416 -0.0116735
0.03871 0.0701309 -0.0118183
0.0385582 0.073052 -0.0114956
0.0384064 0.0759732 -0.0111729
0.0349749 0.0670917 -0.0156173
0.0357207 0.0678631 -0.0149534
0.0345639 0.0672097 -0.0160296
0.0269572 0.0653941 -0.0217556
0.0272678 0.0655234 -0.0214596
0.0286783 0.0672097 -0.0207001
0.0285551 0.0683656 -0.0214596
0.0294297 0.0672097 -0.0198119
0.0298784 0.0679483 -0.0196739
0.0269572 0.0664141 -0.0222981
0.0272734 0.0672097 -0.02235
0.0260373 0.0672097 -0.0231453
-0.0923195 0.131475 0.0127517
-0.0924113 0.131444 0.0135944
-0.092406 0.131475 0.013726
-0.0922934 0.132138 0.0165156
-0.0920579 0.130794 0.0106732
-0.0923437 0.131475 0.0129746
-0.0916949 0.132825 0.0135944
-0.0909391 0.134397 0.0143165
-0.072945 0.148396 -0.0302231
-0.0723625 0.147927 -0.0294056
-0.0723625 0.147898 -0.0289187
-0.0738804 0.149002 -0.0291257
-0.0713971 0.147357 -0.0273019
-0.0717373 0.148221 -0.0331443
-0.0719018 0.147809 -0.0302231
-0.0710894 0.147706 -0.0302231
-0.0227026 0.120056 -0.0109409
-0.0256238 0.120976 -0.00873721
-0.0242482 0.120543 -0.00977493
-0.0206653 0.121004 -0.00977493
-0.0177568 0.122712 -0.0075075
-0.0169182 0.123204 -0.00685377
-0.0168603 0.123238 -0.0068086
-0.023147 0.11687 -0.013952
-0.0228246 0.118258 -0.0126961
-0.0227026 0.118783 -0.0122211
-0.0224687 0.119791 -0.0113099
-0.0219012 0.120901 -0.00977493
-0.0208789 0.122712 -0.00710564
-0.0207824 0.122883 -0.00685377
-0.0197815 0.1207 -0.0100658
-0.0190706 0.120896 -0.00977493
-0.0168603 0.121507 -0.0088704
-0.0257311 0.11834 -0.0126961
-0.0256238 0.118393 -0.0126458
-0.0227889 0.119791 -0.011318
-0.0227026 0.119833 -0.0112776
-0.0197815 0.118383 -0.0124964
-0.0221298 0.119791 -0.0113002
-0.00863062 0.174729 -0.0273019
-0.00958179 0.172372 -0.0226291
-0.00922523 0.173255 -0.0243808
-0.00967205 0.172372 -0.0275308
-0.0621847 0.163749 -0.0389866
-0.0624534 0.163973 -0.0360654
-0.063599 0.166597 -0.0369484
-0.0635743 0.166529 -0.0368439
-0.0633904 0.166029 -0.0360654
-0.0644113 0.166529 -0.0327192
-0.063599 0.165409 -0.0329547
-0.0629451 0.164508 -0.0331443
-0.0636726 0.164775 -0.0302231
-0.063599 0.16473 -0.0304531
-0.0627373 0.164205 -0.0331443
-0.064608 0.165344 -0.0273019
0.0583422 0.0711563 0.0106732
0.0590901 0.070465 0.0127387
0.0594516 0.0701309 0.0137373
0.0593999 0.0701787 0.0135944
0.0590901 0.0704583 0.0151339
0.059448 0.0701309 0.0149188
0.0590901 0.0697378 0.0170363
0.0592492 0.0697532 0.0165156
0.0583564 0.0696667 0.0194367
0.0579688 0.0701309 0.00717287
0.058007 0.0703584 0.00775207
0.0574869 0.0701309 0.00649958
0.0561689 0.0717255 0.00834242
0.0565911 0.0712146 0.00775207
0.0573411 0.0692978 0.0048309
0.0553011 0.0706044 0.0048309
0.0561689 0.0702829 0.00520292
0.0565794 0.0701309 0.00537891
0.0418461 0.0701309 -0.00651885
0.0420293 0.0672097 -0.00349951
0.042003 0.0676287 -0.0039326
0.0420816 0.0672097 -0.00329975
0.0429359 0.0701309 -0.00236254
0.0421875 0.0672097 -0.00305455
0.043228 0.0682398 -0.00101143
0.0432584 0.066547 -0.00101143
-0.046072 0.145687 0.00416122
-0.0455632 0.146081 0.00426018
-0.0621541 0.151924 -0.0166502
-0.061818 0.153958 -0.0185384
-0.062324 0.151924 -0.0196829
-0.0530158 0.14316 0.0238588
-0.0528302 0.140239 0.0255857
-0.0528631 0.140758 0.0252791
-0.0525239 0.140239 0.02345
-0.0524798 0.140997 0.0223579
-0.0525979 0.138969 0.0252791
-0.0503999 0.136964 0.0223579
-0.0514568 0.137318 0.0245525
-0.0519143 0.137471 0.0255025
-0.0518067 0.137435 0.0252791
-0.0523052 0.137318 0.0269294
-0.0519143 0.136883 0.0267762
-0.0496793 0.134397 0.0259003
-0.0504195 0.137134 0.00190974
-0.0503691 0.137318 0.00214233
-0.0497865 0.139442 0.0048309
-0.0519947 0.137318 1.23982e-05
-0.0532567 0.138013 -0.00101143
-0.0519143 0.137273 7.76205e-05
-0.0499917 0.134397 0.000415139
-0.0520531 0.134397 -0.0021354
-0.0519143 0.134599 -0.00182458
-0.0515512 0.135128 -0.00101143
-0.0526971 0.14316 0.0216368
-0.0530737 0.145002 0.0223579
-0.0859572 0.108793 0.0194367
-0.0850138 0.108921 0.0223579
-0.0841375 0.108106 0.0248783
-0.0842187 0.109391 0.0252791
-0.0869683 0.110253 0.0185264
-0.0865715 0.110078 0.0194367
-0.0852981 0.109516 0.0223579
-0.0840472 0.109031 0.0251015
-0.0839268 0.10903 0.0252791
-0.0819467 0.109013 0.0282002
0.0428336 0.0716161 -0.0039326
0.0420808 0.073052 -0.00631073
0.0351854 0.0695016 -0.0156173
0.0357207 0.0692935 -0.0150756
0.0370044 0.0701309 -0.0135711
0.0375044 0.0723348 -0.0126961
0.0376671 0.073052 -0.0124113
0.0383298 0.0759732 -0.0112516
0.0366024 0.0701309 -0.013887
0.0363091 0.073052 -0.0134786
0.0291323 0.0696501 -0.0214596
0.0298784 0.0693055 -0.0203947
0.0269572 0.0692479 -0.0232075
0.0284475 0.0701309 -0.022483
0.0298458 0.0729519 -0.0214596
0.0298784 0.0730176 -0.0214358
0.0298954 0.073052 -0.0214233
0.0313433 0.0759732 -0.0203635
0.0283323 0.0701309 -0.0225856
0.0272641 0.073052 -0.023763
-0.0624135 0.160687 -0.0412906
-0.062264 0.162296 -0.0419078
-0.0621797 0.163247 -0.0419078
-0.0621707 0.163608 -0.0398828
-0.0489332 0.137318 0.0164824
-0.0489931 0.137387 0.0166394
-0.0489458 0.137332 0.0165156
-0.047853 0.136 0.0135944
-0.0451309 0.13137 0.0106732
-0.046072 0.132985 0.0117343
-0.0451925 0.131475 0.0107427
-0.0468944 0.134397 0.0126616
-0.0477217 0.135817 0.0135944
-0.0471875 0.134397 0.0165705
-0.0472019 0.134431 0.0165156
-0.0464365 0.132585 0.0194367
-0.0894609 0.137859 0.0311214
-0.0888682 0.137318 0.0271759
-0.0890119 0.137973 0.0282002
-0.0895974 0.139224 0.0252791
-0.0890743 0.138169 0.0282002
-0.0898895 0.139942 0.0276768
-0.0892706 0.1386 0.0282002
-0.0900265 0.140239 0.0275609
-0.0894556 0.140239 0.0295824
0.0317446 0.0693364 -0.0185384
0.0327995 0.0696197 -0.0177295
0.0314462 0.0701309 -0.0188805
0.031977 0.0707759 -0.0185384
0.0306895 0.0701309 -0.0195735
0.0311249 0.073052 -0.0198278
0.0315602 0.0759732 -0.020082
-0.028545 0.122649 -0.00558203
-0.0287311 0.122712 -0.00543246
-0.0305975 0.123339 -0.0039326
-0.0343873 0.123317 -0.00686811
-0.031513 0.123487 -0.0039326
-0.0314661 0.12349 -0.0038847
-0.0318793 0.121918 -0.00685377
-0.031496 0.122712 -0.00519333
-0.0312049 0.123314 -0.0039326
-0.0350244 0.125633 -0.00261803
-0.0343873 0.125288 -0.00276497
-0.0314661 0.123704 -0.00343871
-0.0302254 0.124098 -0.00101143
-0.0291958 0.124781 0.00190974
-0.0889286 0.120521 0.00190974
-0.0888728 0.121817 0.00190974
-0.0885989 0.122712 0.0013603
-0.0877046 0.125633 -0.000433198
-0.0892874 0.122712 0.00331663
-0.0891 0.125633 0.00353123
-0.0898895 0.119485 0.00399582
-0.089553 0.119791 0.00328323
-0.0902838 0.119127 0.0048309
-0.091663 0.117875 0.00775207
-0.0291651 0.154845 -0.00259328
-0.028545 0.15501 -0.00305953
-0.0273838 0.155319 -0.0039326
-0.0344864 0.151924 -0.0018028
-0.0343873 0.151988 -0.00179537
-0.0314661 0.153898 -0.00157644
-0.0508765 0.139796 0.0194367
-0.0519143 0.14117 0.0205646
-0.0512111 0.140239 0.0198004
-0.0501713 0.140239 0.0173249
-0.0498902 0.137318 0.0202729
-0.0497455 0.137543 0.0194367
-0.0489931 0.137086 0.0181711
-0.0474671 0.134397 0.0189433
-0.0491243 0.137318 0.0181047
-0.0464919 0.132678 0.0194367
-0.00977697 0.16695 -0.0214596
-0.0764646 0.149002 -0.00770224
-0.07699 0.148218 -0.00685377
-0.0782048 0.148758 -0.00284733
-0.0778757 0.148612 -0.0039326
-0.0769842 0.148717 -0.00685377
-0.077071 0.149002 -0.00655816
-0.0772577 0.146081 -0.0045263
-0.0769003 0.147716 -0.00685377
-0.0752837 0.144985 -0.00691011
-0.0751255 0.144658 -0.00685377
-0.0758138 0.146081 -0.00709901
-0.0763617 0.148336 -0.00977493
-0.0782048 0.112518 -0.00328749
-0.0775356 0.112831 -0.0039326
-0.0782048 0.115436 -0.00492322
-0.0766511 0.113948 -0.0051795
-0.0760807 0.113948 -0.00533231
-0.0723625 0.115366 -0.00741189
-0.0752837 0.113911 -0.00575629
-0.0752091 0.113948 -0.00579854
-0.0733472 0.114875 -0.00685377
-0.0758257 0.110945 -0.00685377
-0.0758365 0.111027 -0.00680198
-0.0723625 0.113014 -0.00818828
-0.0752837 0.11337 -0.00593511
-0.0740926 0.113225 -0.00685377
-0.0903363 0.137318 0.0220139
-0.0902161 0.136818 0.0223579
-0.092208 0.131318 0.0252791
-0.0906146 0.134397 0.0237682
-0.0898895 0.135746 0.0232912
-0.0891888 0.136446 0.0252791
-0.0901386 0.135517 0.0223579
-0.0898895 0.135284 0.0249617
-0.0898798 0.135213 0.0252791
-0.0897681 0.134397 0.028954
-0.089791 0.134564 0.0282002
-0.0898895 0.137302 0.0235271
-0.089889 0.137318 0.0235309
-0.086811 0.10668 0.0165156
-0.0865379 0.108106 0.0179426
-0.0862738 0.106373 0.0194367
-0.0851129 0.107093 0.0223579
-0.0871828 0.105185 0.0182644
-0.0869683 0.105774 0.01799
-0.0882463 0.102264 0.0196245
-0.0880995 0.102667 0.0194367
-0.0863549 0.105986 0.0194367
-0.0853471 0.105975 0.0223579
-0.0843393 0.105963 0.0252791
0.0327995 0.0714663 -0.0179685
0.0338846 0.0701309 -0.016926
0.0341133 0.0701309 -0.0166487
0.034734 0.0714949 -0.0156173
0.0357207 0.0736631 -0.0139778
0.0327995 0.0721315 -0.0179095
0.0330278 0.073052 -0.0175835
0.0327995 0.0717304 -0.0179145
0.0343375 0.073052 -0.0157798
0.0344545 0.0731526 -0.0156173
0.0357207 0.0742407 -0.0138597
0.0323802 0.073052 -0.018678
0.0324497 0.0727126 -0.0185384
0.0317817 0.0759732 -0.0198792
-0.092576 0.122712 0.0307793
-0.0925836 0.122902 0.0311214
-0.0929356 0.118678 0.0340426
-0.0928107 0.119617 0.032449
-0.0927065 0.120399 0.0311214
-0.0925428 0.122712 0.0290699
-0.0925655 0.125633 0.029462
-0.0939014 0.121749 0.0252791
-0.0928107 0.1217 0.0281953
-0.0928088 0.1217 0.0282002
-0.0496503 0.140239 0.00562584
-0.0497913 0.140208 0.0048309
-0.0497983 0.140239 0.00479981
0.0424759 0.0899509 -0.00685377
-0.0880263 0.122712 2.41183e-05
-0.0876689 0.125633 -0.000516395
-0.028545 0.0885812 -0.0325026
-0.0277617 0.0889292 -0.0331443
-0.0256238 0.0901488 -0.0344394
-0.0252362 0.090579 -0.0343201
-0.0256238 0.0898182 -0.0347174
-0.02303 0.090579 -0.0356991
-0.0264187 0.0869012 -0.0360654
-0.0263132 0.0876579 -0.0356595
0.0435017 0.073052 -0.00211503
0.0429297 0.0742395 -0.0039326
0.0439287 0.073052 -0.00103844
0.0439419 0.0730719 -0.00101143
0.0444842 0.0738882 9.83237e-05
0.0437501 0.073052 -0.00152878
0.0442908 0.0759732 -0.00140278
0.0444842 0.0770181 -0.00135771
0.0440153 0.0701309 0.000138
0.0437871 0.0718716 -0.00101143
-0.0922931 0.125633 0.00890145
-0.0920658 0.128554 0.00942816
-0.0624237 0.160687 -0.0404003
-0.0621783 0.163608 -0.0392233
-0.0624395 0.156394 -0.0360654
-0.0624739 0.157766 -0.0381451
-0.0624879 0.158321 -0.0389866
-0.0647938 0.154845 -0.0420056
-0.0646001 0.155246 -0.0419078
-0.063599 0.157319 -0.0414021
-0.0633829 0.157766 -0.0412929
-0.0633357 0.158874 -0.0448289
-0.062735 0.159375 -0.0419078
0.0460635 0.0845796 0.0106732
0.0460473 0.0847367 0.0107241
0.045746 0.0876579 0.0116694
0.0454447 0.090579 0.0126148
0.0460427 0.0818155 0.0153068
0.0454274 0.090579 0.0129273
0.0456325 0.0876579 0.0137204
0.0455999 0.088122 0.0135944
-0.081126 0.111624 0.0451496
-0.0869683 0.111944 0.0417414
-0.0855781 0.111887 0.0428061
-0.0840472 0.111824 0.0439785
-0.0838707 0.111027 0.0422258
-0.0837634 0.111231 0.0428061
-0.081126 0.111026 0.0441207
-0.0782048 0.110058 0.0437406
-0.0811309 0.111027 0.0441213
-0.0836491 0.112883 0.0457272
-0.083831 0.113948 0.047008
-0.0868278 0.112932 0.0048309
-0.0868912 0.111027 0.00800328
-0.0868862 0.111178 0.00775207
-0.0840472 0.11234 0.00182324
-0.0841632 0.112388 0.00190974
-0.0879728 0.113948 0.00477238
-0.0880493 0.113978 0.0048309
-0.0869683 0.113563 0.00400429
-0.0850224 0.113948 0.0013586
-0.0840472 0.114192 -1.92444e-05
-0.0833448 0.114368 -0.00101143
-0.0854125 0.113851 0.00190974
-0.0873581 0.0993425 0.00488241
-0.0869683 0.100161 0.00467327
-0.086562 0.101729 0.0048309
-0.0865663 0.102264 0.00511954
-0.0617613 0.165471 -0.0565136
-0.06192 0.166296 -0.0535924
-0.061965 0.166529 -0.0527646
-0.0623834 0.163608 -0.0547772
-0.0622152 0.16498 -0.0535924
-0.0620251 0.166529 -0.052254
-0.0908132 0.138813 0.0194367
-0.0906146 0.137005 0.0165156
-0.0906652 0.137318 0.0168756
-0.0905041 0.13896 0.0165156
-0.0908175 0.137318 0.0185321
-0.0908001 0.135514 0.0194367
-0.0911975 0.139955 0.0194367
-0.0912619 0.140239 0.0196815
-0.0913363 0.140239 0.0171022
-0.0916584 0.141453 0.0165156
0.0453497 0.0751849 0.00190974
0.0458377 0.0756307 0.0048309
0.0462126 0.0759732 0.0070749
0.0463257 0.0760765 0.00775207
0.0464832 0.0760825 0.0106732
0.0462584 0.0788944 0.00645394
0.0463644 0.0768569 0.00775207
0.0463589 0.0788944 0.00897637
0.0463137 0.0818155 0.00979591
0.0464497 0.0759732 0.0083235
0.0462324 0.073052 0.00443167
0.0462503 0.0733793 0.0048309
0.0463811 0.0757742 0.00775207
0.046392 0.0759732 0.00799481
0.0422035 0.0759732 -0.00604282
0.0415631 0.075664 -0.00690117
0.0415985 0.0756575 -0.00685377
0.0386419 0.0762017 -0.0108085
0.0398834 0.0759732 -0.00914782
0.0394146 0.0760595 -0.00977493
0.0426787 0.0759732 -0.0052073
0.0433554 0.0767919 -0.0039326
0.0444842 0.0781577 -0.00180632
0.0344352 0.0752674 -0.0156173
0.0357207 0.0747765 -0.013853
0.0344173 0.0759732 -0.0158221
0.0345974 0.0760687 -0.0156173
0.0357207 0.0766646 -0.0143399
0.033645 0.0759732 -0.0168429
0.0336008 0.0788944 -0.0179191
0.0325806 0.0761199 -0.0185384
0.0327995 0.0760068 -0.0181611
0.0328647 0.0759732 -0.0180489
-0.0909741 0.113064 0.0135944
-0.0898895 0.112121 0.0156067
-0.0882285 0.111027 0.0170592
-0.0888501 0.111436 0.0165156
-0.0917688 0.113948 0.0146613
-0.0914373 0.113458 0.0165156
-0.091813 0.113948 0.0179111
-0.0898895 0.112072 0.0143645
-0.0884067 0.111027 0.0139152
-0.0928799 0.119791 0.0340208
-0.0928862 0.119685 0.0340426
-0.0928107 0.120959 0.0337806
-0.0927067 0.122712 0.0334199
-0.092592 0.125633 0.0308309
-0.0925967 0.125432 0.0311214
-0.0925856 0.124354 0.0340426
-0.0924444 0.125426 0.0369637
-0.0924171 0.125633 0.0375291
-0.0923223 0.125633 0.032742
-0.0917652 0.128554 0.032001
-0.0923841 0.124915 0.0340426
-0.0921865 0.125633 0.0347638
-0.0915837 0.127823 0.0369637
-0.0913825 0.128554 0.037698
-0.0125442 0.16306 -0.0156173
-0.0126168 0.163608 -0.0166196
-0.0519143 0.150343 0.0151056
-0.0513924 0.149002 0.014821
-0.0373085 0.150485 0.000339398
-0.0356013 0.151346 -0.00101143
-0.0402296 0.14896 -0.00133526
-0.0401486 0.149002 -0.00128678
-0.0396885 0.149243 -0.00101143
-0.0598208 0.0367545 0.0457272
-0.0580716 0.037998 0.0465979
-0.0577566 0.0388064 0.046832
-0.0577566 0.0357754 0.0461648
-0.0548355 0.0361025 0.046758
-0.0608038 0.0350768 0.043999
-0.0606778 0.0351158 0.0441322
-0.0591682 0.0355825 0.0457272
-0.0585518 0.0355058 0.0457272
-0.0577566 0.0352685 0.0453895
-0.0571147 0.0350768 0.0451169
-0.0519143 0.142242 0.0195176
-0.0518884 0.142261 0.0194367
-0.050364 0.137318 0.0218097
-0.0519143 0.140721 0.0212959
-0.0516946 0.140239 0.0213687
0.0453543 0.0752777 0.00190974
0.0454555 0.0759732 0.00232801
0.0458806 0.0788944 0.00408496
0.0460611 0.0801346 0.0048309
0.0451988 0.0759732 0.00109112
0.0448085 0.0781884 -0.00101143
0.0443394 0.0701309 0.000960793
0.0444842 0.0708616 0.00108934
0.0449184 0.073052 0.00147468
0.0460866 0.073052 0.00368399
0.0453644 0.0751044 0.00190974
0.0386419 0.0763615 -0.0108079
0.0394127 0.0767128 -0.00977493
0.0415631 0.0776928 -0.00689343
0.0415926 0.0777062 -0.00685377
0.043276 0.0781401 -0.0039326
0.0444842 0.0784229 -0.00177885
0.0422819 0.0788944 -0.0057137
0.043291 0.0810857 -0.0039326
0.0415358 0.0788944 -0.00714372
0.0415631 0.0787672 -0.00708269
0.0416651 0.0782903 -0.00685377
0.0367493 0.0750477 -0.0126961
0.0380163 0.0759732 -0.011498
0.0371319 0.076964 -0.0126961
0.0386419 0.0771245 -0.0110491
0.0386419 0.0765987 -0.0108497
0.0395583 0.0778862 -0.00977493
0.0402757 0.0788944 -0.00893347
0.036453 0.0759732 -0.0132286
-0.0865925 0.108106 0.0158465
-0.0865425 0.108303 0.0165156
-0.0884922 0.102264 0.0101149
-0.088262 0.10296 0.0106732
-0.0875269 0.105185 0.0124566
-0.0870579 0.106604 0.0135944
-0.0869683 0.106875 0.0138117
-0.0525397 0.151473 0.0165156
-0.052918 0.151233 0.0194367
-0.0532963 0.150993 0.0223579
-0.0544105 0.153614 0.0194367
-0.0539617 0.151924 0.0228119
-0.0540221 0.152151 0.0223579
-0.0541183 0.151924 0.0250521
-0.0734992 0.145328 -0.0126961
-0.0731289 0.14316 -0.00881676
-0.0736194 0.144236 -0.00977493
-0.0727231 0.144097 -0.0126961
-0.0752837 0.147088 -0.0107521
-0.0746835 0.146081 -0.0104613
-0.0723625 0.143888 -0.0107718
-0.0707073 0.14316 -0.0116996
-0.0483608 0.145088 0.00775207
-0.0492654 0.14316 0.00773127
-0.049114 0.143492 0.00775207
-0.0489931 0.143756 0.00776867
-0.0491548 0.14316 0.00444272
-0.0490661 0.143382 0.0048309
-0.0489931 0.143564 0.0051505
-0.0483989 0.145051 0.00775207
0.0464412 0.0788944 0.0115082
0.0463715 0.0806262 0.0106732
0.0463236 0.0818155 0.0100998
0.0464509 0.0771467 0.0135944
0.0462858 0.0788944 0.0146905
0.0465433 0.0758231 0.0135944
0.0465533 0.0759732 0.0130735
0.0469361 0.074355 0.0106732
0.0465687 0.0759732 0.0128216
-0.0841244 0.0993425 -0.00336484
-0.0842971 0.0993425 -0.00221656
-0.0844315 0.10155 -0.00101143
-0.084475 0.102264 -0.000621753
-0.0847287 0.0927877 -0.0039326
-0.0846365 0.0935002 -0.00384767
-0.0842583 0.0964214 -0.00349947
-0.0854855 0.0964214 -0.000904756
-0.0854293 0.0964525 -0.00101143
-0.0837256 0.0964214 -0.00423288
-0.0840472 0.0969578 -0.00363065
-0.0838859 0.0966888 -0.0039326
-0.0850091 0.108106 0.022204
-0.0859383 0.108511 0.0194367
-0.0849574 0.108083 0.0223579
-0.0869683 0.109834 0.0179435
-0.0869683 0.109534 0.0159255
-0.0868134 0.1093 0.0165156
-0.0841153 0.107032 0.0252791
-0.0840472 0.10775 0.0249772
-0.08385 0.107862 0.0252791
-0.0834198 0.108106 0.0259377
-0.0819422 0.108945 0.0282002
-0.0840472 0.107707 0.0249738
-0.0838407 0.107683 0.0252791
-0.081865 0.107457 0.0282002
-0.081126 0.107372 0.0292928
-0.0626286 0.150226 -0.0185384
-0.0626993 0.149002 -0.015204
-0.0625093 0.149999 -0.0156173
-0.0491045 0.14316 0.00430497
-0.0489931 0.143309 0.00442295
-0.0486081 0.143823 0.0048309
-0.0480105 0.144454 0.0048309
-0.0723625 0.162712 -0.0409538
-0.071986 0.162477 -0.0419078
-0.0731389 0.163195 -0.0389866
-0.0723088 0.156695 -0.0360654
-0.0720671 0.160687 -0.0401565
-0.0719636 0.162396 -0.0419078
-0.072244 0.157766 -0.037163
-0.0721362 0.159545 -0.0389866
-0.0706075 0.164978 -0.0477501
-0.0713434 0.163608 -0.0446071
-0.0712914 0.163705 -0.0448289
-0.0715067 0.160687 -0.0427786
-0.0723625 0.163908 -0.0422873
-0.072279 0.163608 -0.0422224
-0.073092 0.166529 -0.042854
-0.0718581 0.157766 -0.0400841
-0.0719213 0.160687 -0.0412602
-0.0719561 0.162296 -0.0419078
0.0454611 0.0818155 0.0215716
0.0451599 0.0833014 0.0223579
0.044869 0.0847367 0.0231174
0.0461164 0.0801897 0.0165156
0.0460427 0.0792424 0.0194367
0.0464438 0.0755439 0.0165156
0.0463923 0.0759732 0.0169567
0.046103 0.0783863 0.0194367
0.0460421 0.0788944 0.0199589
0.0461321 0.0759732 0.0192966
0.0461135 0.0765084 0.0194367
0.0460307 0.0788944 0.0200616
0.0457201 0.0759732 0.0206565
0.0460126 0.0788944 0.0201213
0.0343687 0.0788944 -0.0169039
0.0351866 0.0783045 -0.0156173
0.0357207 0.0779193 -0.014777
0.0372298 0.0774819 -0.0126961
0.0386419 0.0782775 -0.0112918
0.0371382 0.0788944 -0.0138023
0.0378523 0.0818155 -0.0148385
0.0357207 0.0807675 -0.0165671
0.037018 0.0815679 -0.0156173
0.0374193 0.0818155 -0.0153234
0.0327995 0.0782868 -0.0189477
0.0331941 0.0788679 -0.0185384
0.0332121 0.0788944 -0.0185198
0.0327995 0.0799066 -0.0188699
0.0331525 0.0797052 -0.0185384
0.0342088 0.0818155 -0.018266
-0.084421 0.102048 -0.00101143
-0.0844609 0.102264 -0.000715386
-0.0841198 0.102264 -0.00191169
-0.0841282 0.103468 -0.00101143
-0.0841403 0.105185 0.000272009
-0.081126 0.102168 -0.00598614
-0.0809697 0.102264 -0.00612476
-0.0840472 0.100385 -0.00339555
-0.0834416 0.100755 -0.0039326
-0.0840472 0.100639 -0.00323044
-0.0837153 0.102264 -0.00259991
-0.0831186 0.105185 -0.00146621
-0.0828792 0.106357 -0.00101143
-0.0825219 0.108106 -0.000332501
-0.0859868 0.0964214 0.0001616
-0.0852487 0.0993425 -0.000192285
-0.0845105 0.102264 -0.00054617
-0.084263 0.105185 0.000702558
-0.0890296 0.13708 0.0282002
-0.0893191 0.137318 0.0301237
-0.0894692 0.137441 0.0311214
-0.0900707 0.133254 0.0369637
-0.0897927 0.137318 0.0334239
-0.0899926 0.134397 0.0359687
-0.0898895 0.135903 0.0346563
-0.0898413 0.136608 0.0340426
-0.0897408 0.134397 0.0300991
-0.0897499 0.135516 0.0311214
-0.0897645 0.137318 0.0327668
-0.0895151 0.139992 0.0340426
-0.0894881 0.140239 0.0341431
-0.0897174 0.140239 0.0311811
-0.0897158 0.140318 0.0311214
-0.0782048 0.0942359 -0.0115346
-0.0771978 0.0936824 -0.0126961
-0.0834247 0.090579 -0.00601491
-0.0826081 0.0914716 -0.00685377
-0.081126 0.0930918 -0.00837633
-0.0807523 0.0935002 -0.00876018
-0.0797645 0.09458 -0.00977493
-0.0823192 0.0941102 -0.00685377
-0.081126 0.0944478 -0.00820304
-0.0797359 0.0948412 -0.00977493
-0.0165679 0.0350768 0.050155
-0.0139391 0.0361343 0.0509114
-0.0139391 0.0367776 0.0509255
-0.011018 0.0377141 0.0500229
-0.0168603 0.03587 0.051507
-0.0723625 0.0639063 0.0176176
-0.072877 0.0642885 0.0173583
-0.0746465 0.0673761 0.0194367
-0.0723625 0.0638275 0.0170505
-0.0711661 0.0630216 0.0165156
-0.0694413 0.0618599 0.0157444
-0.0687101 0.0613674 0.0154175
-0.0723625 0.0637674 0.0164769
-0.0723833 0.0637845 0.0165156
-0.0727188 0.0642885 0.017675
-0.0725139 0.0650312 0.0194367
-0.0723625 0.06558 0.0207385
-0.0721741 0.0662626 0.0223579
-0.0492474 0.142987 0.0048309
-0.0498664 0.141733 0.0048309
0.0448168 0.078587 -0.00101143
0.0450026 0.0788944 -0.000146694
0.0454444 0.0796252 0.00190974
0.046072 0.0806633 0.0048309
0.0462389 0.0815649 0.00775207
0.0462654 0.0818155 0.00858444
0.0460634 0.0809421 0.0048309
0.0454461 0.0818155 0.00221662
0.0460954 0.0818155 0.00543262
0.0459116 0.0847367 0.00600411
0.0448108 0.0787809 -0.00101143
0.0448319 0.0788944 -0.000902335
0.0453759 0.0818155 0.00190551
0.0453767 0.0818199 0.00190974
0.0444842 0.0790163 -0.00178422
0.0445468 0.0788944 -0.0016715
0.0391236 0.0788944 -0.0109895
0.0397901 0.0818155 -0.0116297
0.038544 0.0801074 -0.0126961
0.0386419 0.0797854 -0.0123373
0.0389127 0.0788944 -0.0113443
0.0380248 0.0818155 -0.0145995
0.0395319 0.0788944 -0.0102023
0.0398362 0.0791363 -0.00977493
-0.0723625 0.142417 -0.00836339
-0.0694413 0.14126 -0.00849766
-0.0694413 0.141014 -0.00836156
-0.068808 0.140239 -0.00826134
-0.0691285 0.141951 -0.00977493
-0.0665201 0.140501 -0.00792068
0.0462689 0.0818155 0.0112197
0.046285 0.0819815 0.0106732
0.0461989 0.0810943 0.0135944
0.0459871 0.0847367 0.00740388
0.0460316 0.0843859 0.00775207
0.04434 0.081547 -0.00101143
0.0444842 0.0815947 -0.000600692
0.0451524 0.0818155 0.00130295
0.0453654 0.0818859 0.00190974
0.0456899 0.084588 0.0048309
0.0457065 0.0847367 0.00498825
0.0453294 0.0820475 0.00190974
0.0436467 0.0818155 -0.00269239
0.0440831 0.0826998 -0.00101143
0.0444842 0.0835125 0.00053357
0.0415631 0.0804015 -0.00719694
0.0417451 0.0804848 -0.00685377
0.0432949 0.0811942 -0.0039326
0.0386419 0.082396 -0.0139114
0.0394757 0.082707 -0.0126961
0.0405398 0.0818155 -0.0101841
0.0406606 0.0815481 -0.00977493
0.0374277 0.0866819 -0.0156173
0.0386419 0.0849336 -0.0138773
0.0387786 0.0847367 -0.0136813
0.0394661 0.0837468 -0.0126961
0.0375666 0.0847367 -0.0154418
0.0374371 0.085667 -0.0156173
0.0357207 0.082917 -0.0172095
0.0372771 0.0823625 -0.0156173
-0.0891375 0.0959233 0.0106732
-0.0892968 0.0954979 0.0135944
-0.0895822 0.0964214 0.0162069
-0.0884586 0.0928816 0.00775207
-0.0887369 0.0935002 0.0101829
-0.0887931 0.093625 0.0106732
-0.0891275 0.0943683 0.0135944
-0.0894517 0.0950462 0.0165156
-0.0894893 0.0935002 0.0202411
-0.0894812 0.093834 0.0194367
-0.0894364 0.0951148 0.0165156
-0.0890091 0.0959505 0.0194367
-0.0887683 0.0964214 0.0210827
-0.0885818 0.0967862 0.0223579
-0.0895929 0.0935002 0.0158368
-0.0883995 0.127074 0.00190974
-0.0871647 0.126676 -0.00101143
-0.0869683 0.127023 -0.00119903
-0.0877774 0.128554 0.00101788
-0.0871994 0.125863 -0.00101143
-0.0869683 0.125881 -0.00124941
-0.081126 0.143603 -0.000705881
-0.0809324 0.143664 -0.00101143
-0.082783 0.143079 0.00190974
-0.0819801 0.138491 -0.00101143
-0.0825485 0.140239 0.000544023
-0.0830475 0.141773 0.00190974
-0.0840472 0.143963 0.00430168
-0.0835724 0.14316 0.00325784
-0.0842878 0.14437 0.0048309
-0.0852895 0.140239 0.00265194
-0.0840472 0.141984 0.0028134
-0.0840472 0.142917 0.00414084
-0.0844015 0.142937 0.0048309
-0.0833899 0.14316 0.00287419
-0.0835811 0.140239 0.00136596
-0.0835196 0.141178 0.00190974
-0.049064 0.14316 0.0041418
-0.0489931 0.143229 0.00411846
-0.0494097 0.14316 0.00366177
-0.0500632 0.143637 0.00190974
-0.050254 0.14316 0.00186575
-0.050249 0.143116 0.00190974
0.046438 0.0759732 0.0160056
0.0462426 0.0788944 0.0157899
0.0448213 0.0841415 0.00190974
0.0451624 0.0847367 0.00336138
0.0455076 0.0853392 0.0048309
-0.0869683 0.110639 0.00876119
-0.0898895 0.112813 0.0103113
-0.0874903 0.111027 0.00903817
-0.0905715 0.113321 0.0106732
-0.0869683 0.110682 0.00866904
-0.0892415 0.113948 0.00653022
-0.0872086 0.111027 0.00844299
-0.0879429 0.112082 0.00775207
-0.0875545 0.110435 0.0135944
-0.0869683 0.110577 0.00919765
-0.0943021 0.125633 0.0179524
-0.0947328 0.124053 0.0194367
-0.0936226 0.128554 0.0178336
-0.093439 0.128554 0.0170296
-0.0928107 0.130574 0.0172463
-0.0925304 0.131475 0.0173429
-0.0941059 0.126862 0.0194367
-0.0624583 0.16435 -0.0389866
-0.063599 0.166761 -0.0382585
-0.0634896 0.166529 -0.0383283
-0.0644425 0.169451 -0.0424017
-0.0639877 0.167771 -0.0389866
-0.0652434 0.169451 -0.0395854
-0.0646938 0.168603 -0.0389866
-0.0645576 0.167738 -0.0360654
-0.0655542 0.16833 -0.0331443
-0.0625951 0.154845 -0.0342665
-0.0627641 0.153738 -0.0331443
-0.0644089 0.179856 -0.0594348
-0.063599 0.17932 -0.0589366
-0.0639821 0.178214 -0.0564733
-0.06398 0.178238 -0.0565136
-0.0665201 0.180464 -0.0562121
-0.0662202 0.18037 -0.0565136
-0.0665201 0.180548 -0.0583936
-0.0637184 0.179207 -0.0594348
-0.063599 0.178844 -0.0599041
-0.0424125 0.129104 0.00775207
-0.0402296 0.128638 0.00677208
-0.0398396 0.128554 0.00659696
-0.0373085 0.128016 0.00554407
-0.0362612 0.127888 0.00775207
-0.0388834 0.127954 0.00190974
-0.0376198 0.128008 0.0048309
-0.0367295 0.126739 -0.00101143
-0.0370049 0.127316 0.00190974
-0.0373085 0.127952 0.00512921
-0.0372803 0.127893 0.0048309
-0.0665201 0.179794 -0.0597233
-0.0665201 0.180581 -0.0589984
-0.0658379 0.180363 -0.0594348
-0.063599 0.178461 -0.0606177
-0.0653206 0.178214 -0.0604473
-0.0629348 0.178214 -0.0585879
-0.063599 0.177655 -0.0563926
-0.0635624 0.177686 -0.0565136
-0.0626823 0.177953 -0.0594348
-0.0627507 0.178214 -0.0592003
-0.0629146 0.178315 -0.0594348
-0.0438504 0.129053 0.0048309
-0.0431508 0.129159 0.00706016
-0.0429337 0.129192 0.00775207
-0.0450931 0.12971 0.0048309
-0.046072 0.129582 0.00210457
-0.0427302 0.128554 0.00159804
-0.0439624 0.128783 0.00190974
-0.0402296 0.128089 0.000965474
-0.046072 0.12896 0.000789375
-0.0449045 0.128928 0.00190974
-0.0455999 0.127484 -0.0039326
-0.0449361 0.128554 0.000556186
-0.0447359 0.128877 0.00190974
-0.0431508 0.126663 -0.00569939
-0.0435036 0.127175 -0.0039326
-0.0444545 0.128554 0.000828936
-0.0446703 0.128867 0.00190974
-0.0665201 0.17972 -0.0550406
-0.0650166 0.178214 -0.0549232
-0.0665201 0.17781 -0.052362
-0.0653059 0.177539 -0.0535924
-0.0645826 0.175293 -0.0516977
-0.064272 0.176477 -0.0535924
-0.0647508 0.174651 -0.0506713
-0.0694413 0.181269 -0.0559749
-0.0689118 0.181135 -0.0557303
-0.0675896 0.178214 -0.0515108
-0.0675964 0.179705 -0.0535924
-0.0703564 0.181117 -0.0535924
-0.0694413 0.181013 -0.0541015
-0.0705129 0.181135 -0.0535054
-0.0677174 0.180897 -0.0565136
-0.0708161 0.181205 -0.0535924
-0.0694413 0.181308 -0.0567691
-0.0685268 0.181135 -0.0575619
-0.0697361 0.181364 -0.0565136
-0.0314661 0.125333 0.0185099
-0.0322458 0.125271 0.0194367
-0.0314661 0.122256 0.0246744
-0.0316266 0.122712 0.0239256
-0.0319627 0.123667 0.0223579
-0.0343873 0.123487 0.0245135
-0.0335399 0.124287 0.0223579
-0.0346883 0.123204 0.0252791
-0.0314661 0.124436 0.0206552
-0.0292333 0.122712 0.0225496
-0.0294592 0.122886 0.0223579
-0.0373085 0.125349 0.0220398
-0.0379772 0.125363 0.0223579
-0.0343873 0.125288 0.0206503
-0.0235278 0.125633 0.0184771
-0.0227026 0.125962 0.0184171
-0.0197815 0.127125 0.0182048
-0.0694413 0.179797 -0.0524007
-0.0677646 0.178214 -0.0513855
-0.0708579 0.181135 -0.0532584
-0.0670577 0.175095 -0.0477501
-0.0670933 0.175293 -0.0479866
-0.0674973 0.177539 -0.0506713
-0.0660421 0.175293 -0.0498081
-0.0669498 0.17691 -0.0506713
-0.0694413 0.177791 -0.0492907
-0.068155 0.177969 -0.0506713
-0.0723625 0.180965 -0.0537022
-0.0719772 0.181022 -0.0535924
-0.0712095 0.181135 -0.0533737
-0.0735172 0.180715 -0.0535924
-0.0737739 0.180128 -0.0506713
-0.0752837 0.179313 -0.052806
-0.0741154 0.180276 -0.0535924
-0.0709046 0.181135 -0.0532183
-0.0708569 0.178214 -0.0487315
-0.0708775 0.179477 -0.0506713
-0.0723625 0.180603 -0.051726
-0.0710183 0.181135 -0.053166
-0.0733469 0.180213 -0.0506713
-0.0431508 0.129465 0.00829587
-0.0431508 0.129368 0.00931126
-0.043434 0.129536 0.0106732
-0.0373085 0.128133 0.00881356
-0.0402296 0.128694 0.00836368
-0.0395005 0.128554 0.00847597
-0.0431508 0.129286 0.00765236
-0.0430587 0.129258 0.00775207
-0.0410917 0.128554 0.0042818
-0.0413573 0.128651 0.0048309
-0.0427701 0.129166 0.00775207
-0.0402296 0.12824 0.00249944
-0.0399444 0.128136 0.00190974
-0.0268463 0.121827 0.0252791
-0.0273569 0.120296 0.0282002
-0.026551 0.122712 0.0235892
-0.0251558 0.122525 0.0252791
-0.0258964 0.122712 0.0241882
-0.028545 0.122253 0.023083
-0.0270096 0.122712 0.023245
-0.0256238 0.12303 0.0235808
-0.0227026 0.123581 0.0245209
-0.0256238 0.123793 0.0215512
-0.0245634 0.124916 0.0194367
-0.0260283 0.123364 0.0223579
-0.0694413 0.156179 0.0243309
-0.0673835 0.155924 0.0252791
-0.0665201 0.155515 0.0268244
-0.0651089 0.154845 0.0293505
-0.0657515 0.15515 0.0282002
-0.0683864 0.155915 0.0252791
-0.0689818 0.154845 0.029219
-0.0688278 0.155121 0.0282002
-0.0692692 0.154328 0.0311214
-0.0671369 0.156304 0.0165156
-0.0675486 0.156302 0.0194367
-0.0679603 0.1563 0.0223579
-0.0665201 0.15625 0.0234398
-0.0723625 0.156339 0.0200588
-0.0698325 0.156315 0.0223579
-0.0694413 0.156311 0.0227134
-0.0489931 0.165449 0.00289309
-0.0474441 0.166529 0.00257432
-0.046072 0.167487 0.00229195
-0.0466138 0.166529 0.0031495
-0.0492481 0.163608 0.00508628
-0.0489931 0.163891 0.00489882
-0.0489008 0.163993 0.0048309
-0.046072 0.16713 0.00275116
-0.046072 0.168115 0.00122593
-0.0454037 0.168097 0.00190974
-0.046072 0.12866 0.0232962
-0.0460471 0.128554 0.0233049
-0.0465223 0.131475 0.021734
-0.0465482 0.131175 0.0223579
-0.047155 0.131475 0.0236433
-0.0489931 0.133605 0.0253186
-0.0489498 0.133555 0.0252791
-0.0462023 0.130555 0.0223579
-0.046072 0.130467 0.0220953
-0.0840472 0.152651 0.00817543
-0.084847 0.152923 0.0106732
-0.0857825 0.153242 0.0135944
-0.0862772 0.153192 0.0165156
-0.0879164 0.151924 0.012858
-0.0869683 0.152534 0.0132723
-0.0862312 0.153008 0.0135944
-0.0840472 0.153647 0.0125169
-0.0814054 0.154217 0.0106732
-0.081126 0.154278 0.0104783
-0.0855911 0.153314 0.0135944
-0.0840472 0.153985 0.0147734
-0.0819191 0.154845 0.0159703
-0.0861923 0.151885 0.0106732
