-0.027218 0.110175 0.0379745
-0.0337235 0.173691 -0.0015653
-0.0335266 0.172533 -0.0015653
-0.0236134 0.110175 0.0396487
-0.0257372 0.110175 0.0389344
-0.0264166 0.157444 -0.0015653
-0.030467 0.154512 -0.0015653
-0.0168603 0.111747 0.0403058
-0.0168603 0.115077 0.0382204
-0.0168603 0.113846 0.0390532
-0.0168603 0.108352 0.0416284
-0.0173004 0.110175 0.0410996
-0.0168603 0.109791 0.0413703
-0.0171813 0.110175 0.0411542
-0.0174332 0.110175 0.0411104
-0.0168603 0.110386 0.041146
-0.031147 0.124103 -0.0015653
-0.0357617 0.126292 -0.0015653
-0.0168603 0.12446 0.0280805
-0.0168603 0.126241 0.0244741
-0.0168603 0.125416 0.0260424
-0.0363911 0.126555 -0.0015653
-0.0168603 0.0454275 0.0512168
-0.0168603 0.0469765 0.0498297
-0.0168603 0.0427938 0.0520659
-0.00700866 0.110175 0.0429022
-0.007186 0.110175 0.0429076
-0.00892064 0.110175 0.042817
-0.00656334 0.110175 0.042949
-0.0168603 0.0476577 0.0491519
-0.0168603 0.0486351 0.0477331
-0.0168603 0.0490135 0.0474147
-0.0168603 0.0495765 0.0474245
-0.000115272 0.110175 0.042587
-0.0168603 0.0501967 0.0473518
-0.0168603 0.0534456 0.0497586
-0.0168603 0.159959 -0.00869017
-0.0168603 0.159825 -0.0101836
-0.0168603 0.0538461 0.0499757
-0.0168603 0.0545915 0.050186
-0.0168603 0.0576436 0.051159
0.0383792 0.104965 -0.0015653
0.0367219 0.108624 -0.0015653
0.0373922 0.110175 0.00330675
0.00362484 0.110175 0.0422906
0.00489988 0.110175 0.0418122
0.00285046 0.110175 0.0424511
-0.0168603 0.123558 0.0297968
-0.0168603 0.128195 0.0180946
0.0177246 0.110175 0.0392014
0.0148162 0.110175 0.0398705
-0.0626483 0.150937 -0.0015653
-0.0168603 0.0605911 0.0519816
-0.0168603 0.0625368 0.0521225
-0.0868663 0.121816 -0.0015653
-0.0868916 0.124013 -0.0015653
-0.0168603 0.0705212 0.0547002
-0.0168603 0.0645153 0.0525015
-0.0168603 0.065955 0.0532698
0.0383963 0.104945 -0.0015653
-0.0168603 0.0711149 0.0548651
-0.0168603 0.0716225 0.0549543
-0.0168603 0.105205 -0.022503
-0.0168603 0.0748376 0.0554721
-0.0844429 0.110175 0.00386228
-0.0865383 0.110175 0.00817686
-0.0168603 0.117416 0.0364984
-0.0168603 0.118089 0.0359958
-0.0367411 0.173608 -0.0015653
-0.0168603 0.0776979 0.0562767
-0.0168603 0.0791634 0.0570103
-0.0168603 0.0772059 0.0561103
-0.041467 0.171731 -0.0015653
-0.0376226 0.173226 -0.0015653
-0.0168603 0.119679 0.0350577
-0.0168603 0.0806961 0.0574568
-0.0168603 0.0835923 0.0573871
0.0376808 0.110175 0.0167536
0.0418399 0.0983598 -0.0015653
0.0409568 0.101236 -0.0015653
-0.0168603 0.0862525 0.0571293
-0.0168603 0.0878725 0.0563685
-0.0168603 0.126747 0.0232648
-0.0708974 0.157168 -0.0015653
-0.0718396 0.157001 -0.0015653
-0.00983852 0.127929 -0.0015653
-0.00654321 0.128611 -0.0015653
-0.0342402 0.173965 -0.0015653
-0.0361961 0.173846 -0.0015653
0.0402319 0.102845 -0.0015653
-0.0168603 0.120717 0.0338325
-0.0866157 0.120267 -0.0015653
-0.0387913 0.110175 0.0365723
-0.0168603 0.128268 0.00794954
-0.0168603 0.128589 0.01325
-0.0168603 0.128247 0.0175178
-0.0168603 0.0939204 0.0539563
-0.0168603 0.0959842 0.0515823
-0.0168603 0.0927284 0.0548036
-0.0168603 0.0914873 0.055372
0.0369447 0.110175 0.0226222
0.0363459 0.110175 0.0243401
0.0371034 0.110175 0.0215252
0.036989 0.110175 0.0222576
-0.0168603 0.128037 0.0188543
-0.0338817 0.17403 -0.0015653
0.0359302 0.109805 -0.0015653
0.0358791 0.110175 -0.00100403
0.0347944 0.110175 -0.00433988
-0.0168603 0.128146 0.00645525
-0.0168603 0.128043 0.00552021
-0.0620347 0.110175 0.0375523
-0.0590974 0.110175 0.0374173
-0.0168603 0.103194 0.0435157
-0.0168603 0.104833 0.0427189
-0.0168603 0.103015 0.0436127
-0.0168603 0.103099 0.0435732
-0.0421044 0.171435 -0.0015653
-0.0200992 0.110175 0.0405162
-0.0105508 0.110175 0.0426234
-0.0101713 0.110175 0.042627
-0.00416148 0.110175 0.0427928
-0.0422788 0.110175 0.0376913
-0.0357412 0.110175 0.036684
-0.0207814 0.110175 0.0404079
-0.0193266 0.110175 0.0406156
-0.00992322 0.110175 0.0427131
0.0190048 0.110175 0.038881
-0.0703087 0.110175 0.0409205
-0.0629797 0.110175 0.0374293
-0.0403519 0.110175 0.0370461
-0.0368753 0.110175 0.0365622
-0.0288859 0.110175 0.0376962
-0.0349663 0.110175 0.0368101
0.0103671 0.110175 0.0397788
0.00940765 0.110175 0.039913
0.0118241 0.110175 0.0397521
0.0193182 0.110175 0.0388269
0.0211146 0.110175 0.0382788
-0.0518351 0.110175 0.037558
-0.0570045 0.110175 0.0376747
-0.0515103 0.110175 0.0375502
-0.0522422 0.110175 0.0375534
-0.0437179 0.110175 0.0377661
-0.0479026 0.110175 0.0377981
-0.00265609 0.110175 0.0425431
0.0139498 0.110175 0.0399708
-0.0868576 0.12089 -0.0015653
-0.0861878 0.119667 -0.0015653
0.0441885 0.0911425 -0.0015653
0.0424228 0.0959472 -0.0015653
-0.033649 0.172163 -0.0015653
-0.0168603 0.042499 0.0521758
-0.0168603 0.0401953 0.0520814
-0.0168603 0.0420657 0.0521902
-0.0168603 0.171943 -0.016788
-0.034367 0.16978 -0.0015653
-0.0168603 0.169704 -0.0153882
-0.0168603 0.173288 -0.0172109
-0.0168603 0.168705 -0.0147502
-0.0168603 0.166727 -0.0128106
-0.0355361 0.162502 -0.0015653
-0.0168603 0.161208 -0.00764349
-0.0168603 0.180369 -0.0192456
-0.0314095 0.161066 -0.0015653
-0.0649245 0.110175 0.0376342
0.0300726 0.110175 0.0338636
-0.0353949 0.167375 -0.0015653
-0.0365532 0.164626 -0.0015653
-0.0168603 0.162942 -0.00861398
-0.0168603 0.164221 -0.0105068
-0.0357975 0.162843 -0.0015653
-0.0364671 0.163936 -0.0015653
-0.0310791 0.161017 -0.0015653
-0.0168603 0.181629 -0.0195422
-0.0168603 0.161376 -0.00772919
-0.0168603 0.162446 -0.0082653
-0.0168603 0.161028 -0.00773741
-0.0261754 0.160801 -0.0015653
-0.0168603 0.185004 -0.0192409
-0.0168603 0.183648 -0.0194953
-0.0168603 0.185527 -0.0193117
-0.029154 0.161091 -0.0015653
-0.0349788 0.16229 -0.0015653
-0.025784 0.157886 -0.0015653
-0.0168603 0.103808 -0.0229999
-0.0168603 0.105827 -0.0224239
-0.084423 0.110175 0.00380193
-0.0844023 0.110175 0.00377044
-0.0307649 0.160975 -0.0015653
-0.0244213 0.159666 -0.0015653
0.0377767 0.110175 0.01535
0.0351298 0.110175 0.027408
-0.0324257 0.161425 -0.0015653
0.0230242 0.110175 0.0378195
0.02781 0.110175 0.0359354
0.0248289 0.110175 0.037151
-0.0680219 0.110175 0.0382438
-0.0678644 0.110175 0.0381832
-0.0681809 0.110175 0.0385149
-0.0168603 0.177088 -0.0183761
-0.0305872 0.154455 -0.0015653
0.0314681 0.110175 0.0320715
0.0298931 0.110175 0.0340275
0.0353867 0.110175 0.0270735
-0.0168603 0.176168 -0.0182363
-0.0247967 0.158936 -0.0015653
0.0447001 0.0872397 -0.0015653
0.0209164 0.03579 -0.0015653
0.0214295 0.0353192 -0.0015653
0.0395179 0.0417647 -0.0015653
0.0388806 0.0413898 -0.0015653
-0.0545918 0.141464 -0.0015653
-0.0783047 0.110175 -0.00431236
-0.080609 0.110175 -0.00196569
-0.0805565 0.110752 -0.0015653
-0.081751 0.108298 -0.0015653
-0.0345834 0.151921 -0.0015653
0.0486896 0.0479829 -0.0015653
0.0464295 0.0462711 -0.0015653
-0.0168603 0.0363686 0.0520124
0.0500275 0.0492602 -0.0015653
-0.0168603 0.159967 -0.0107371
0.0533534 0.0541128 -0.0015653
-0.0411678 0.148465 -0.0015653
0.0530968 0.0535771 -0.0015653
0.0537205 0.0551546 -0.0015653
-0.0168603 0.0940454 -0.0340138
-0.0168603 0.0955274 -0.0317898
0.0549373 0.0598817 -0.0015653
0.0546653 0.0606047 -0.0015653
0.0427623 0.0653135 -0.0015653
0.0436611 0.0640261 -0.0015653
-0.0794971 0.147846 -0.0015653
0.0443516 0.0905804 -0.0015653
0.0446891 0.0874217 -0.0015653
0.0446662 0.0868176 -0.0015653
-0.0868164 0.110175 0.00979
-0.0873842 0.110175 0.0135067
-0.0168603 0.123238 -0.0068086
-0.0168603 0.121507 -0.0088704
0.0436626 0.0726158 -0.0015653
0.0429459 0.0679605 -0.0015653
0.0429692 0.0666692 -0.0015653
-0.0517985 0.134768 -0.0015653
-0.0842571 0.110175 0.0261614
-0.0867911 0.110175 0.018933
0.0436739 0.0726704 -0.0015653
-0.0304206 0.123968 -0.0015653
-0.0305322 0.154481 -0.0015653
-0.0313175 0.153995 -0.0015653
-0.0799913 0.111683 -0.0015653
-0.0757247 0.110175 -0.00733817
0.0436748 0.0726929 -0.0015653
-0.0785586 0.110175 0.0437867
0.0446122 0.0783125 -0.0015653
-0.0349014 0.151699 -0.0015653
-0.0406141 0.148759 -0.0015653
0.044604 0.0784509 -0.0015653
-0.0843697 0.100535 -0.0015653
-0.0851373 0.0966139 -0.0015653
-0.087133 0.110175 0.0179388
-0.0873926 0.110175 0.0143096
-0.0843463 0.101644 -0.0015653
-0.0841231 0.102727 -0.0015653
-0.0831708 0.10493 -0.0015653
-0.0168603 0.03587 0.051507
0.0446057 0.0787795 -0.0015653
0.0441456 0.0814828 -0.0015653
0.0439393 0.0824084 -0.0015653
-0.0866616 0.125906 -0.0015653
-0.0817777 0.137869 -0.0015653
-0.0366773 0.12663 -0.0015653
-0.0452498 0.128048 -0.0015653
-0.0439764 0.127861 -0.0015653
-0.066753 0.154886 -0.0015653
-0.0679389 0.155921 -0.0015653
-0.0645596 0.152869 -0.0015653
-0.0835038 0.110175 0.0272803
-0.0807001 0.143198 -0.0015653
-0.0814685 0.139395 -0.0015653
-0.0800096 0.145406 -0.0015653
-0.0803454 0.14399 -0.0015653
-0.0168603 0.186082 -0.0236219
-0.0689196 0.156349 -0.0015653
-0.0480488 0.12873 -0.0015653
-0.0168603 0.187224 -0.0207527
-0.0168603 0.18733 -0.0209229
-0.0168603 0.187332 -0.021108
-0.0168603 0.187035 -0.0217077
-0.0168603 0.0965612 0.0508676
-0.0855678 0.0942976 -0.0015653
-0.0854053 0.0906452 -0.0015653
0.0334142 0.113739 -0.0015653
0.0309989 0.116505 -0.0015653
0.0293785 0.117759 -0.0015653
-0.0800316 0.11143 -0.0015653
-0.0762339 0.110175 -0.00648524
-0.0741338 0.156605 -0.0015653
-0.0802456 0.112001 -0.0015653
-0.0808848 0.112844 -0.0015653
-0.0813357 0.110175 -0.000690025
0.0379116 0.110175 0.00781136
0.0379228 0.110175 0.0117964
0.0379745 0.110175 0.00899696
0.0346805 0.111785 -0.0015653
0.0255294 0.120802 -0.0015653
0.0231519 0.122286 -0.0015653
0.0171989 0.125884 -0.0015653
0.0213166 0.1236 -0.0015653
-0.0743953 0.15638 -0.0015653
-0.0826893 0.110175 0.00040614
0.0268817 0.119661 -0.0015653
-0.0760513 0.155014 -0.0015653
-0.0696877 0.110175 -0.0109935
-0.0715087 0.110175 -0.010027
-0.0440616 0.170466 -0.0015653
-0.0168603 0.0993127 0.0442904
-0.0168603 0.0983773 0.0459517
-0.0168603 0.0973826 0.048668
-0.0168603 0.0986142 0.0455723
-0.0478935 0.167784 -0.0015653
-0.0459708 0.16914 -0.0015653
-0.0774302 0.153406 -0.0015653
-0.0168603 0.0599936 0.0516797
-0.0821834 0.110175 0.0292623
0.00486617 0.110175 -0.0202288
0.00373875 0.110175 -0.0201961
-0.0829185 0.114869 -0.0015653
-0.0836985 0.116756 -0.0015653
-0.0392699 0.110175 -0.0187237
-0.0865838 0.127636 -0.0015653
-0.0865892 0.127601 -0.0015653
-0.0690155 0.0393137 -0.0015653
-0.0677846 0.0412693 -0.0015653
-0.0641359 0.0443066 -0.0015653
-0.0653023 0.0437348 -0.0015653
-0.0662654 0.0426751 -0.0015653
-0.0488454 0.16696 -0.0015653
-0.0575968 0.0479519 -0.0015653
-0.0599273 0.0462067 -0.0015653
-0.0580685 0.0476171 -0.0015653
-0.0528393 0.162074 -0.0015653
-0.0517404 0.163814 -0.0015653
0.0172947 0.110175 -0.0166442
-0.0574342 0.0482854 -0.0015653
-0.0565513 0.0501753 -0.0015653
-0.050107 0.165393 -0.0015653
0.0344466 0.110175 -0.0051161
0.0337758 0.110175 -0.00608868
-0.0561875 0.0529633 -0.0015653
-0.0821093 0.137202 -0.0015653
-0.0818673 0.137756 -0.0015653
-0.032574 0.110175 -0.0183239
-0.0292665 0.110175 -0.0182817
-0.0275582 0.110175 -0.0189745
-0.0560493 0.0554686 -0.0015653
-0.0560888 0.0567124 -0.0015653
-0.0572504 0.0596821 -0.0015653
-0.0168603 0.179057 -0.0256097
-0.0573635 0.0598034 -0.0015653
-0.00513227 0.110175 -0.0219011
-0.0678393 0.0637425 -0.0015653
-0.0650776 0.0620999 -0.0015653
-0.0656422 0.0622869 -0.0015653
-0.0168603 0.168653 -0.0211137
-0.0168603 0.166816 -0.0196315
-0.028348 0.123729 -0.0015653
-0.0267116 0.123897 -0.0015653
-0.0168603 0.0363791 -0.0270073
-0.0168603 0.0369054 -0.0271978
-0.0691545 0.0647768 -0.0015653
-0.0686706 0.0643091 -0.0015653
-0.0689007 0.06452 -0.0015653
-0.0718582 0.0676769 -0.0015653
-0.0534491 0.161125 -0.0015653
-0.0835423 0.133671 -0.0015653
-0.0843 0.132462 -0.0015653
-0.0832558 0.134542 -0.0015653
-0.0168603 0.183932 -0.0251019
-0.0168603 0.182458 -0.0256258
-0.0168603 0.180616 -0.0255935
-0.0741487 0.0697611 -0.0015653
-0.0763726 0.0710418 -0.0015653
-0.078817 0.149335 -0.0015653
-0.0781161 0.15063 -0.0015653
-0.0790521 0.148653 -0.0015653
-0.0168603 0.111828 -0.0193955
-0.0159808 0.110175 -0.0199888
-0.0141436 0.110175 -0.0196121
-0.0168603 0.109456 -0.0201348
-0.0180888 0.110175 -0.0198012
-0.0168603 0.107963 -0.021348
-0.0779019 0.0724511 -0.0015653
-0.0805047 0.0757167 -0.0015653
0.0168631 0.126042 -0.0015653
-0.0812118 0.0764588 -0.0015653
-0.0823961 0.0802776 -0.0015653
-0.00344959 0.110175 -0.0214037
0.000173938 0.110175 -0.0200758
-0.0825426 0.0806207 -0.0015653
0.00913094 0.110175 -0.0195138
0.0114567 0.110175 -0.018833
0.00645345 0.110175 -0.0201379
-0.0825605 0.0807695 -0.0015653
-0.0846409 0.0838472 -0.0015653
-0.077829 0.152097 -0.0015653
-0.0849575 0.0842599 -0.0015653
-0.0547381 0.157474 -0.0015653
-0.0851262 0.0846901 -0.0015653
-0.0850557 0.0861559 -0.0015653
-0.085276 0.0892238 -0.0015653
-0.0745588 0.110175 -0.00816132
-0.0168603 0.10234 -0.0235397
-0.0168603 0.185603 -0.0242929
-0.043596 0.110175 -0.0182656
-0.0168603 0.0354617 -0.0266874
-0.0168603 0.0362443 -0.0269509
0.0512579 0.0647949 -0.0015653
0.013555 0.110175 -0.0183581
-0.0548751 0.15725 -0.0015653
-0.049941 0.110175 -0.0185921
-0.0439674 0.110175 -0.0182782
-0.0470916 0.110175 -0.0178585
-0.0500479 0.110175 -0.0186103
-0.0507062 0.110175 -0.0185298
-0.0351801 0.110175 -0.0190242
-0.00630902 0.110175 -0.0219291
-0.00967433 0.110175 -0.0212168
-0.0550705 0.156891 -0.0015653
-0.0168603 0.0959259 -0.0310626
-0.0168603 0.0985623 -0.0244073
-0.0168603 0.0981083 -0.0249388
-0.0168603 0.0999085 -0.024158
-0.0640609 0.152652 -0.0015653
-0.0554729 0.156397 -0.0015653
-0.0558374 0.154693 -0.0015653
0.0159886 0.110175 -0.0173125
-0.0229096 0.110175 -0.0201918
-0.0264397 0.110175 -0.019313
-0.0168603 0.112888 -0.0188995
-0.0587375 0.148922 -0.0015653
-0.0566718 0.150246 -0.0015653
-0.0561481 0.153795 -0.0015653
-0.0577386 0.148444 -0.0015653
0.0209472 0.110175 -0.015299
0.0189022 0.110175 -0.0160838
-0.0598416 0.148263 -0.0015653
-0.0633833 0.152092 -0.0015653
-0.0609324 0.149236 -0.0015653
-0.0168603 0.123936 -0.00573002
-0.0432534 0.110175 -0.0183328
-0.0365522 0.110175 -0.0189989
-0.0558551 0.144071 -0.0015653
0.0236414 0.110175 -0.0135693
-0.0168603 0.0920601 -0.0358005
-0.0168603 0.125471 -0.00276111
-0.0168603 0.120439 -0.00999044
0.0324053 0.110175 -0.0080771
-0.0557466 0.143908 -0.0015653
-0.0556316 0.143768 -0.0015653
-0.0552665 0.144729 -0.0015653
-0.0558571 0.14423 -0.0015653
-0.0168603 0.11441 -0.0173279
-0.011878 0.110175 -0.0203683
-0.0168603 0.0964772 -0.0294885
-0.0168603 0.0958542 -0.0312599
-0.0168603 0.0909127 -0.0366565
-0.0168603 0.0876018 -0.0383784
-0.000433506 0.129148 -0.0015653
-0.0168603 0.117419 -0.0149035
-0.0168603 0.11825 -0.0138336
-0.0204319 0.110175 -0.0202808
0.0468944 0.0643627 -0.0015653
0.0503578 0.064728 -0.0015653
0.0516339 0.0644514 -0.0015653
0.0538 0.0622867 -0.0015653
0.044006 0.0639119 -0.0015653
-0.0168603 0.0915039 -0.0363463
-0.0538193 0.138189 -0.0015653
-0.0537395 0.137643 -0.0015653
-0.0532826 0.137278 -0.0015653
-0.0542756 0.140082 -0.0015653
0.0437104 0.0638473 -0.0015653
-0.0168603 0.116081 -0.0163185
-0.0504099 0.132269 -0.0015653
-0.0496924 0.130538 -0.0015653
-0.0168603 0.100931 -0.0237438
0.0436151 0.0638915 -0.0015653
-0.0168603 0.127595 0.00323966
-0.0119976 0.127429 -0.0015653
-0.0158172 0.126162 -0.0015653
0.002576 0.129204 -0.0015653
-0.0168603 0.091285 -0.0364844
0.0313339 0.110175 -0.0091713
-0.0406928 0.127471 -0.0015653
-0.0372461 0.126823 -0.0015653
0.00615118 0.129129 -0.0015653
0.00739916 0.128971 -0.0015653
0.0115889 0.128059 -0.0015653
0.0142139 0.127088 -0.0015653
-0.0485071 0.128855 -0.0015653
-0.0476889 0.128779 -0.0015653
-0.0222998 0.124811 -0.0015653
-0.0168603 0.12589 -0.00153564
-0.0168374 0.125886 -0.0015653
-0.000616064 0.12918 -0.0015653
-0.000174965 0.129183 -0.0015653
-0.00087965 0.129181 -0.0015653
0.00145422 0.110175 -0.0201727
0.0280083 0.110175 -0.0116632
0.0294106 0.110175 -0.0108214
0.0254321 0.110175 -0.0130087
-0.0226533 0.124739 -0.0015653
-0.0168603 0.12569 -0.00220522
-0.0168603 0.0342928 -0.025516
-0.0670343 0.0335247 -0.0015653
-0.0705871 0.0359835 -0.0015653
-0.0707322 0.0343115 -0.0015653
0.0221514 0.0356511 -0.0015653
0.0231718 0.0365747 -0.0015653
0.023509 0.0367008 -0.0015653
-0.0705456 0.0364039 -0.0015653
-0.069639 0.0378681 -0.0015653
0.0328737 0.0393959 -0.0015653
0.0246092 0.0372622 -0.0015653
0.0263568 0.0376368 -0.0015653
0.0295392 0.0382716 -0.0015653
-0.0168603 0.0409301 -0.0277641
-0.0168603 0.0436882 -0.0274953
-0.0692554 0.0388591 -0.0015653
0.0315382 0.0388448 -0.0015653
0.0348717 0.0398242 -0.0015653
0.0304363 0.0386354 -0.0015653
-0.0168603 0.0440718 -0.0274742
-0.0168603 0.0452689 -0.0280842
0.0425992 0.0443479 -0.0015653
0.0441864 0.0450749 -0.0015653
0.0363683 0.040291 -0.0015653
-0.0168603 0.0454696 -0.0281523
-0.0168603 0.0455481 -0.0281965
-0.0168603 0.0506186 -0.0312287
-0.0168603 0.170145 -0.0220008
-0.0168603 0.173392 -0.0238724
-0.0168603 0.0520981 -0.0318941
-0.0168603 0.0574458 -0.0345644
-0.0168603 0.0586133 -0.0351211
-0.0168603 0.0596473 -0.0355432
-0.0168603 0.0625141 -0.0361743
-0.0168603 0.0638239 -0.0367142
-0.0168603 0.0646987 -0.0371792
-0.0601594 0.0608849 -0.0015653
-0.0593659 0.0606596 -0.0015653
-0.0168603 0.0661964 -0.0378517
-0.0631367 0.0615685 -0.0015653
-0.0168603 0.0664447 -0.0379285
-0.0168603 0.177646 -0.0254849
-0.0599329 0.110175 -0.0161812
-0.0624537 0.110175 -0.0152126
-0.0630918 0.110175 -0.0147749
-0.0563062 0.110175 -0.017641
-0.0543886 0.142246 -0.0015653
-0.0655831 0.110175 -0.0130124
-0.0168603 0.0737438 -0.0390105
-0.0168603 0.0730406 -0.0388105
-0.0539669 0.146965 -0.0015653
-0.0505348 0.146003 -0.0015653
-0.0168603 0.0761688 -0.0390162
-0.0168603 0.0794137 -0.0387568
-0.0168603 0.0809638 -0.0392664
-0.0168603 0.0849828 -0.0390983
-0.0168603 0.0852496 -0.0390639
-0.0168603 0.0856921 -0.0389592
-0.0168603 0.17346 -0.0238923
-0.0168603 0.033579 -0.0245631
-0.0168603 0.0336991 -0.0228318
-0.0168603 0.033801 -0.0211172
-0.0168603 0.0343093 -0.0197426
-0.0168603 0.0345226 -0.0192119
-0.0168603 0.035254 -0.0187704
0.0103338 0.0342058 -0.0015653
0.016388 0.0343389 -0.0015653
0.0144941 0.0342476 -0.0015653
-0.0168603 0.037712 -0.0172694
-0.0168603 0.0385786 -0.0160729
0.00939428 0.0341923 -0.0015653
-0.0168603 0.0387067 -0.0158701
-0.0168603 0.0387769 -0.0104588
-0.0168603 0.0387869 -0.0101846
0.0174419 0.0345581 -0.0015653
0.0203749 0.0349364 -0.0015653
0.0188395 0.0347499 -0.0015653
-0.00344633 0.0388759 -0.0015653
0.00789677 0.034391 -0.0015653
-0.0168603 0.0387591 -0.00921126
-0.0028804 0.0389034 -0.0015653
-1.59853e-05 0.0389159 -0.0015653
0.0002424 0.0389209 -0.0015653
0.000612611 0.03889 -0.0015653
0.00501255 0.0352361 -0.0015653
0.00587409 0.0347274 -0.0015653
0.00669493 0.0344451 -0.0015653
-0.0591323 0.0334679 -0.0015653
-0.0416804 0.0337465 -0.0015653
-0.0454828 0.0336921 -0.0015653
-0.0413649 0.0337999 -0.0015653
0.00337054 0.0372017 -0.0015653
-0.0599581 0.0334768 -0.0015653
-0.0491492 0.0335822 -0.0015653
-0.00496177 0.0388363 -0.0015653
-0.0132868 0.0385194 -0.0015653
-0.00777949 0.0387597 -0.0015653
-0.0103349 0.0386873 -0.0015653
0.00148342 0.0384651 -0.0015653
0.00281641 0.0378811 -0.0015653
-0.0255377 0.0383056 -0.0015653
-0.0778909 0.110175 0.04408
-0.0502612 0.0335504 -0.0015653
-0.0525375 0.0334417 -0.0015653
-0.0531104 0.0334555 -0.0015653
-0.0485492 0.0335913 -0.0015653
-0.0465009 0.0336398 -0.0015653
-0.0405228 0.0341234 -0.0015653
-0.0397036 0.0343104 -0.0015653
-0.0387604 0.0349555 -0.0015653
-0.0168603 0.0385865 -0.0038669
-0.0169234 0.0384295 -0.0015653
-0.0168603 0.0384292 -0.00153406
-0.0223532 0.0383855 -0.0015653
-0.0205631 0.0384057 -0.0015653
-0.0194778 0.0384319 -0.0015653
-0.0168603 0.038393 0.0035839
-0.0148491 0.0384895 -0.0015653
-0.0343592 0.0382837 -0.0015653
-0.0303211 0.0383452 -0.0015653
-0.0281937 0.038348 -0.0015653
-0.03097 0.0383183 -0.0015653
-0.0663725 0.0334826 -0.0015653
-0.0566344 0.0334331 -0.0015653
-0.0570504 0.033417 -0.0015653
-0.0560149 0.0334215 -0.0015653
-0.0700517 0.0339533 -0.0015653
-0.068163 0.0335695 -0.0015653
-0.0695302 0.0337561 -0.0015653
-0.0647091 0.0333697 -0.0015653
-0.0614096 0.0333831 -0.0015653
-0.0628695 0.0334008 -0.0015653
-0.0168603 0.0383607 0.0052169
-0.0168603 0.0383406 0.00691341
-0.0168603 0.0382918 0.00989608
-0.0168603 0.0382814 0.0124477
-0.0168603 0.0382387 0.0152738
-0.0168603 0.0382381 0.0178115
-0.083546 0.110175 0.0369708
-0.0822388 0.110175 0.0380099
-0.0820509 0.110175 0.0339367
-0.0817577 0.110175 0.0317076
-0.0168603 0.0382275 0.0213494
-0.0168603 0.0383457 0.024527
-0.0738968 0.110175 0.0434746
-0.0737126 0.110175 0.0434884
-0.0733866 0.110175 0.0432795
-0.0168603 0.0385124 0.0283428
-0.0168603 0.0386449 0.0305814
-0.0168603 0.0388054 0.0326113
-0.0769555 0.110175 0.044304
-0.0817964 0.110175 0.0300844
-0.0710856 0.110175 0.0415826
-0.0168603 0.0390884 0.0367335
-0.0168603 0.0392413 0.0375466
-0.0168603 0.0363697 0.0416327
-0.0168603 0.0394333 0.0395752
-0.0168603 0.034973 0.0431076
-0.0168603 0.0384742 0.0407972
-0.0168603 0.0348167 0.0437123
-0.0168603 0.0348087 0.0440219
-0.0168603 0.0347864 0.0452013
-0.0797395 0.110175 0.0429696
-0.0820895 0.110175 0.0403685
-0.0168603 0.0347134 0.0476518
-0.0168603 0.0349381 0.0499111
-0.0168603 0.0349716 0.0501293
-0.0168603 0.159987 -0.0111522
-0.0496828 0.146332 -0.0015653
-0.0486326 0.146493 -0.0015653
-0.0168603 0.161408 -0.0140772
-0.0168603 0.161802 -0.0147682
-0.0451054 0.14686 -0.0015653
-0.0168603 0.16519 -0.018435
-0.042047 0.148032 -0.0015653
-0.0168603 0.162731 -0.0157892
-0.0470904 0.146644 -0.0015653
