-0.068973 0.123707 0.0527912
-0.0694094 0.124498 0.0527912
-0.0711151 0.133332 0.0495909
-0.0571682 0.135081 0.0346724
0.0257487 0.0870189 0.0471948
0.0265961 0.0870189 0.0465545
0.0261609 0.0870189 0.04697
0.0386237 0.0885042 0.0346724
-0.0247967 0.158936 -0.0015653
-0.0702388 0.133332 0.0491487
-0.0588698 0.149939 0.0346724
-0.063599 0.124998 0.0462792
0.0443752 0.0870189 -0.00236761
0.0447001 0.0872397 -0.0015653
0.0426283 0.0870189 -0.00651226
0.0420282 0.0870189 -0.00813151
0.0139142 0.087797 0.0527912
0.0131356 0.0899087 0.0527912
-0.053968 0.116474 0.0346724
-0.00937326 0.168069 -0.0196841
0.0459687 0.0870189 0.00859281
0.0457971 0.0870189 0.00641002
0.0256629 0.112944 0.0346724
-0.0928012 0.123424 0.0346724
-0.0929836 0.11877 0.0346724
-0.0285025 0.156488 -0.000958104
-0.00942442 0.16816 -0.0196841
-0.0104656 0.170222 -0.0196841
-0.0618186 0.156488 -0.0312874
-0.0621031 0.159871 -0.037803
-0.0620122 0.162856 -0.037803
-0.062318 0.156488 -0.0351757
0.0239664 0.0407062 0.0383769
0.0222343 0.0373979 0.0346724
0.0427787 0.0407062 0.00434812
0.0439373 0.0407062 0.00722425
0.0436335 0.0407062 0.00657586
0.0441648 0.0407062 0.00839109
0.0444182 0.0407062 0.0130941
0.0419632 0.0407062 0.00270337
0.038914 0.0407062 -0.000493603
0.0209164 0.03579 -0.0015653
0.0214295 0.0353192 -0.0015653
0.015384 0.0364223 -0.0196841
0.0423146 0.0407062 0.00314274
0.0395179 0.0417647 -0.0015653
0.0388806 0.0413898 -0.0015653
0.0381572 0.0407062 -0.00115157
0.0214098 0.0407062 -0.0106124
0.0208213 0.0407062 -0.0143826
0.0207731 0.0407062 -0.0146716
0.0199598 0.0407062 -0.0178556
0.0164789 0.0377501 -0.0196841
0.0177008 0.0407062 -0.0212097
0.0129923 0.0349313 -0.0196841
0.0149098 0.0360965 -0.0196841
-0.0545918 0.141464 -0.0015653
-0.0102797 0.179644 -0.0278015
-0.0103436 0.179644 -0.0271698
-0.0103941 0.179644 -0.0270348
-0.063599 0.120406 -0.00878919
-0.063599 0.119818 -0.00893147
-0.0402296 0.0926442 -0.0231692
-0.0402296 0.0967801 -0.0222269
-0.0402296 0.0937367 -0.0230968
0.0532477 0.0481152 0.00467138
0.022509 0.0407062 -0.00793703
0.0228549 0.0407062 -0.00712227
0.0191251 0.0407062 -0.0194296
0.018353 0.0407062 -0.0203134
0.0179236 0.0395814 -0.0196841
0.00650904 0.122033 -0.0126803
0.00650904 0.121809 -0.0129746
0.00650904 0.121767 -0.0130183
0.0244038 0.0407062 0.0372846
0.0249877 0.0401198 0.0346724
0.0268147 0.0407062 0.0321981
0.0250668 0.0401879 0.0346724
0.0233318 0.0384957 0.0346724
-0.0622286 0.158447 -0.0196841
-0.0621494 0.156488 -0.0174253
-0.0622048 0.158371 -0.0196841
-0.0619842 0.156488 -0.0193087
-0.0101113 0.179644 -0.0292589
-0.0104102 0.179644 -0.0295638
0.0244393 0.0407062 -0.00573884
0.020658 0.0427223 -0.0196841
0.0207171 0.0430003 -0.0196841
0.0164257 0.0407062 -0.0219012
-0.00938192 0.167826 -0.0196841
-0.0783047 0.110175 -0.00431236
-0.080609 0.110175 -0.00196569
-0.0805565 0.110752 -0.0015653
-0.081751 0.108298 -0.0015653
-0.0615191 0.170153 -0.0559218
-0.0345834 0.151921 -0.0015653
0.0532477 0.0469695 0.0164579
0.0533083 0.0470375 0.0165535
0.0532477 0.0467552 0.0152307
0.054825 0.0483232 0.0165535
0.0532477 0.0466239 0.013399
0.0491249 0.0436678 0.0165535
0.0509343 0.0450612 0.0165535
0.0486896 0.0479829 -0.0015653
0.0532477 0.0499784 0.00122053
0.0464295 0.0462711 -0.0015653
0.0405534 0.0870189 -0.0109994
0.0407225 0.0870189 -0.0107871
-0.0168603 0.0363686 0.0520124
-0.0185478 0.036638 0.0527912
-0.0187384 0.036477 0.0527912
0.0532477 0.0476564 0.0201857
0.0559718 0.0493945 0.0165535
0.0532477 0.0478394 0.00592612
0.0532477 0.046758 0.0112365
0.0532477 0.0470906 0.00887974
0.0532477 0.0482625 0.0040982
0.0532477 0.049949 0.00126433
0.0500275 0.0492602 -0.0015653
0.0532477 0.0500226 0.00116832
-0.063599 0.159725 -0.0543994
-0.063599 0.159739 -0.051567
-0.0899482 0.133332 0.0335269
-0.0900126 0.132687 0.0346724
-0.0902666 0.131847 0.0346724
-0.0898726 0.133332 0.0319873
-0.0168603 0.159967 -0.0107371
0.0574348 0.0516429 0.0165535
0.0298784 0.0484122 -0.0083852
0.0298784 0.0462575 -0.00700291
0.0298784 0.047415 -0.00743911
0.0298784 0.0479108 -0.00770329
0.0212793 0.0460157 -0.0196841
0.024747 0.0483816 -0.0196841
-0.0618386 0.156488 -0.0296956
0.0532477 0.05421 -0.00178726
0.0533534 0.0541128 -0.0015653
-0.051927 0.144765 0.0165535
-0.0509726 0.142965 0.0165535
-0.0402296 0.148924 0.00117492
-0.0411678 0.148465 -0.0015653
-0.0615915 0.156488 -0.0276394
0.0580878 0.0527483 0.0165535
0.0601325 0.0583515 0.0165535
0.0530968 0.0535771 -0.0015653
0.0532477 0.0511776 0.000330069
-0.0402296 0.0335323 -0.025614
0.0253231 0.0487407 -0.0196841
0.0298784 0.0504739 -0.013962
0.0298784 0.0508045 -0.0143004
0.0275472 0.0514838 -0.0196841
0.0278139 0.0529827 -0.0196841
-0.0478759 0.133332 0.00452688
-0.0480867 0.133332 0.00403561
-0.0485956 0.133332 0.0030321
-0.0614627 0.16969 -0.0559218
-0.0313192 0.107965 -0.0196841
0.0298784 0.0529969 -0.0164989
0.0259241 0.0495235 -0.0196841
-0.0614839 0.156488 -0.0252441
-0.0615725 0.156488 -0.0263086
0.0457555 0.0870189 0.00571918
-0.063599 0.163087 -0.0249796
-0.0940154 0.125691 0.0165535
-0.0943652 0.121488 0.0165535
-0.063599 0.155469 -0.0387376
-0.0633297 0.156488 -0.0392657
-0.0638293 0.15426 -0.037803
-0.063599 0.154536 -0.0374039
-0.0640487 0.153872 -0.037803
-0.0639104 0.154074 -0.037803
-0.063599 0.153884 -0.0363827
0.0602572 0.0587301 0.0165535
0.0610156 0.0638625 0.0114804
0.060825 0.0638625 0.0150411
0.0532477 0.0550467 -0.0021651
0.0532477 0.0546235 -0.00201829
0.0537205 0.0551546 -0.0015653
0.0298784 0.054451 -0.0168028
0.0298784 0.0575356 -0.0172867
0.0277433 0.0546674 -0.0196841
-0.0168603 0.0940454 -0.0340138
-0.0168603 0.0955274 -0.0317898
-0.0649325 0.0638625 0.0268316
-0.0691113 0.0709858 0.0346724
-0.063599 0.066348 0.0324274
0.0373431 0.0870189 -0.015707
0.0602915 0.059111 0.0165535
0.0601033 0.0638625 0.018595
0.0607422 0.0638625 0.0161226
0.0549373 0.0598817 -0.0015653
0.0546653 0.0606047 -0.0015653
0.0542811 0.0638625 -0.000445459
0.0532477 0.0599298 -0.00309527
0.0298784 0.0580749 -0.017546
0.0274646 0.0563436 -0.0196841
0.0298784 0.0576171 -0.0172743
-0.0272623 0.0357702 0.0527912
-0.0287632 0.0360714 0.0527912
0.0581606 0.0638625 0.00345439
0.0572229 0.0638625 0.00199402
0.0544044 0.0638625 -0.000281317
-0.0615783 0.168507 -0.0559218
0.0608681 0.0638625 0.0106479
0.0600614 0.0638625 0.00771677
0.0594004 0.0638625 0.00566371
0.0396241 0.0638625 -0.00811586
0.0373124 0.0638625 -0.0119078
0.0395175 0.0638625 -0.00839033
0.0294097 0.0606383 -0.0196841
0.0298784 0.0607621 -0.0192702
0.029437 0.0607784 -0.0196841
0.0296802 0.0623375 -0.0196841
0.029156 0.0600811 -0.0196841
-0.0616068 0.156488 -0.0230478
-0.0617072 0.155073 -0.0196841
-0.0616528 0.156488 -0.021269
-0.063599 0.0625652 0.0250573
-0.063599 0.0627975 0.0256689
-0.063599 0.0637572 0.0274496
-0.063494 0.0638625 0.0277167
-0.0661631 0.0638625 0.02554
-0.0517258 0.148784 0.0165535
-0.0523963 0.15076 0.0165535
-0.0869683 0.106072 0.0106304
0.0402557 0.0638625 -0.00649473
0.0411738 0.0638625 -0.00402451
0.0411301 0.0638625 -0.00418765
0.0413608 0.0638625 -0.00368812
0.0427623 0.0653135 -0.0015653
0.0426926 0.0638625 -0.00251724
0.0436611 0.0640261 -0.0015653
0.0356319 0.0638625 -0.0135754
0.035176 0.0638625 -0.0140599
0.029692 0.062394 -0.0196841
0.0298784 0.0622843 -0.0195195
0.0322834 0.0638625 -0.0181211
0.0335862 0.0638625 -0.0165548
0.0278771 0.0638625 -0.0212225
0.0265584 0.0638625 -0.0223806
0.0249225 0.0638625 -0.0234752
-0.05194 0.146159 0.0165535
0.0607209 0.0651228 0.0165535
0.0598855 0.0683423 0.0165535
0.0297003 0.0624192 -0.0196841
0.0298784 0.0626105 -0.0195986
0.031044 0.0638625 -0.0190391
0.0293351 0.0638625 -0.0198157
-0.0939262 0.126863 0.0165535
-0.092451 0.131402 0.0165535
-0.0794971 0.147846 -0.0015653
0.0443516 0.0905804 -0.0015653
-0.0402296 0.149573 0.00285853
0.0446891 0.0874217 -0.0015653
0.0446662 0.0868176 -0.0015653
0.0447134 0.0870189 -0.00148413
0.044988 0.0870189 0.000136943
0.0447659 0.0870189 -0.00118044
-0.0864695 0.1088 0.0165535
-0.0868164 0.110175 0.00979
-0.0869683 0.109576 0.0131514
-0.0873842 0.110175 0.0135067
0.029516 0.0659381 -0.0196841
0.0298784 0.0658285 -0.019522
-0.0732727 0.156488 -0.0309518
-0.071822 0.18074 -0.0559218
-0.0713689 0.18079 -0.0559218
-0.0721811 0.179644 -0.0557598
-0.0719805 0.179939 -0.0559218
-0.0703406 0.179644 -0.0571453
-0.063599 0.174812 -0.0531899
-0.063599 0.171632 -0.0498015
-0.063599 0.170299 -0.0472152
-0.0617122 0.154542 -0.0196841
0.0298451 0.0678934 -0.0196841
0.0298784 0.0679483 -0.0196739
-0.0912037 0.133332 0.0115405
-0.0922919 0.132147 0.0165535
-0.0914512 0.133332 0.0138273
-0.0168603 0.123238 -0.0068086
-0.0168603 0.121507 -0.0088704
-0.0622936 0.16384 -0.037803
-0.0638008 0.167146 -0.037803
-0.063599 0.166597 -0.0369484
-0.063599 0.165409 -0.0329547
-0.063599 0.16473 -0.0304531
0.0592376 0.069752 0.0165535
0.0436626 0.0726158 -0.0015653
0.0429459 0.0679605 -0.0015653
0.0429692 0.0666692 -0.0015653
-0.0623251 0.151919 -0.0196841
-0.0496982 0.133332 4.59717e-05
-0.0517985 0.134768 -0.0015653
-0.0842571 0.110175 0.0261614
-0.0869683 0.110253 0.0185264
-0.0867911 0.110175 0.018933
0.0436739 0.0726704 -0.0015653
0.0298784 0.0693055 -0.0203947
0.0303762 0.0690755 -0.0196841
0.0298784 0.0730176 -0.0214358
-0.0489603 0.137349 0.0165535
-0.0462739 0.133332 0.011962
-0.0467459 0.133332 0.018256
-0.047192 0.134407 0.0165535
0.0308789 0.0714016 -0.0196841
-0.0304206 0.123968 -0.0015653
-0.0305322 0.154481 -0.0015653
-0.0313175 0.153995 -0.0015653
-0.0468629 0.133332 0.019249
-0.00962349 0.166744 -0.0196841
-0.0799913 0.111683 -0.0015653
-0.0757247 0.110175 -0.00733817
-0.0911659 0.133332 0.0242909
-0.0868132 0.106661 0.0165535
-0.0869683 0.105774 0.01799
0.0318789 0.0754989 -0.0196841
-0.0264023 0.0870189 -0.0360023
0.0436748 0.0726929 -0.0015653
-0.0624419 0.156488 -0.0362084
-0.0624683 0.15754 -0.037803
-0.0640002 0.156488 -0.0416047
-0.063599 0.157319 -0.0414021
0.0458119 0.0870189 0.0114626
0.0456773 0.0870189 0.0138939
-0.0869683 0.111944 0.0417414
-0.0785586 0.110175 0.0437867
-0.0869683 0.113563 0.00400429
-0.0869683 0.100161 0.00467327
-0.0617935 0.165638 -0.0559218
-0.0906199 0.137038 0.0165535
-0.0905122 0.138944 0.0165535
-0.0916376 0.141375 0.0165535
0.0446122 0.0783125 -0.0015653
0.031916 0.0764634 -0.0196841
-0.0888067 0.111408 0.0165535
-0.0914476 0.113472 0.0165535
-0.0925552 0.124585 0.0346724
-0.0922116 0.125542 0.0346724
-0.0349014 0.151699 -0.0015653
-0.0406141 0.148759 -0.0015653
-0.0402296 0.14896 -0.00133526
0.044604 0.0784509 -0.0015653
-0.0865397 0.108314 0.0165535
-0.0869683 0.106875 0.0138117
-0.0525447 0.151469 0.0165535
-0.0843697 0.100535 -0.0015653
-0.0851373 0.0966139 -0.0015653
-0.0869683 0.109834 0.0179435
-0.087133 0.110175 0.0179388
-0.0869683 0.109534 0.0159255
-0.0868034 0.109285 0.0165535
-0.0873926 0.110175 0.0143096
-0.0628261 0.149612 -0.0196841
-0.0723213 0.156488 -0.0358534
-0.0722062 0.15839 -0.037803
-0.0718305 0.156488 -0.0395696
0.0461155 0.0801774 0.0165535
0.0464393 0.0755809 0.0165535
0.0320896 0.0772413 -0.0196841
-0.0843463 0.101644 -0.0015653
-0.0841231 0.102727 -0.0015653
-0.0831708 0.10493 -0.0015653
-0.0900654 0.133332 0.0368964
-0.0898907 0.135885 0.0346724
-0.0168603 0.03587 0.051507
-0.0722713 0.0638625 0.0177036
-0.071251 0.0630788 0.0165535
-0.0724145 0.0638625 0.0170738
-0.0724038 0.0638013 0.0165535
-0.0724784 0.0638625 0.0166918
0.0446057 0.0787795 -0.0015653
0.0441456 0.0814828 -0.0015653
0.0439393 0.0824084 -0.0015653
-0.0894521 0.0950304 0.0165535
-0.0894308 0.0951257 0.0165535
-0.0869683 0.127023 -0.00119903
-0.0869683 0.125881 -0.00124941
-0.0866616 0.125906 -0.0015653
-0.0817777 0.137869 -0.0015653
-0.0869683 0.110639 0.00876119
-0.0869683 0.110682 0.00866904
-0.0869683 0.110577 0.00919765
-0.063599 0.166761 -0.0382585
-0.0639647 0.167386 -0.037803
-0.0638921 0.179644 -0.0589235
-0.063599 0.17932 -0.0589366
-0.0640106 0.177891 -0.0559218
-0.0639027 0.179644 -0.0588435
-0.0668089 0.180555 -0.0559218
-0.0638985 0.179644 -0.0588814
-0.063599 0.178844 -0.0599041
-0.0402296 0.128638 0.00677208
-0.0366773 0.12663 -0.0015653
-0.0645978 0.179644 -0.0601603
-0.063599 0.178461 -0.0606177
-0.0650526 0.179644 -0.0600977
-0.0637414 0.177535 -0.0559218
-0.063599 0.177655 -0.0563926
-0.0402296 0.128089 0.000965474
-0.0452498 0.128048 -0.0015653
-0.0439764 0.127861 -0.0015653
-0.0664445 0.179644 -0.0550347
-0.0693263 0.18124 -0.0559218
-0.0675962 0.179644 -0.0535073
-0.067668 0.180857 -0.0559218
-0.0701352 0.181394 -0.0559218
-0.0692791 0.179644 -0.0523024
-0.0748816 0.179644 -0.0530766
-0.0728247 0.179644 -0.055027
-0.0708802 0.179644 -0.0509282
-0.0402296 0.128694 0.00836368
-0.0402296 0.12824 0.00249944
-0.0671422 0.156304 0.0165535
-0.0487568 0.133332 0.0251032
-0.0862833 0.153191 0.0165535
-0.0869683 0.152534 0.0132723
-0.066753 0.154886 -0.0015653
-0.0680793 0.156488 -0.00343917
-0.0663913 0.164248 -0.0196841
-0.0668652 0.164641 -0.0196841
-0.0464493 0.133332 0.0111004
-0.0467155 0.133332 0.00985311
-0.0303766 0.125511 0.0165535
-0.0299885 0.125466 0.0165535
0.0532477 0.0693244 0.0245298
-0.063599 0.15292 0.0341206
-0.0648787 0.152748 0.0346724
-0.0649708 0.152766 0.0346724
-0.0664094 0.152785 0.0346724
-0.0577541 0.155442 0.0165535
-0.063599 0.155787 0.0104921
-0.0459793 0.132134 0.0165535
-0.0733514 0.179644 -0.0497917
-0.0738811 0.179644 -0.0495137
-0.0745631 0.179644 -0.0513678
-0.0748247 0.179644 -0.0503028
-0.0742748 0.179644 -0.0497305
-0.0681545 0.156488 -0.00316188
-0.0679389 0.155921 -0.0015653
-0.0645596 0.152869 -0.0015653
-0.0530059 0.152205 0.0165535
-0.0595784 0.156488 0.00565073
-0.063599 0.154168 0.0309049
-0.0869683 0.110397 0.0187086
-0.0835038 0.110175 0.0272803
-0.0869683 0.113118 0.028031
-0.0675295 0.167803 -0.0559218
-0.0676771 0.160609 -0.0559218
-0.0674164 0.162855 -0.0559218
-0.0402296 0.125055 -0.00771623
-0.0402296 0.125539 -0.00692048
0.00650904 0.130301 0.0228947
-0.063599 0.154738 0.0291096
-0.06937 0.152766 0.0346724
-0.063599 0.155119 0.0277146
-0.0928244 0.118134 0.0346724
-0.0929319 0.118475 0.0346724
-0.0807001 0.143198 -0.0015653
-0.0814685 0.139395 -0.0015653
-0.0800096 0.145406 -0.0015653
-0.0803454 0.14399 -0.0015653
-0.0695895 0.152781 0.0346724
-0.0869683 0.0961909 0.00206379
-0.0168603 0.186082 -0.0236219
-0.0655378 0.169408 -0.037803
-0.068458 0.156488 -0.00271513
-0.0689196 0.156349 -0.0015653
-0.0913713 0.146858 0.0165535
-0.0913808 0.148492 0.0165535
-0.0869683 0.102741 0.00603116
-0.0480488 0.12873 -0.0015653
-0.0172831 0.18689 -0.0196841
-0.0168603 0.187224 -0.0207527
-0.0176548 0.187183 -0.0196841
-0.0168603 0.18733 -0.0209229
-0.0168603 0.187332 -0.021108
-0.0168603 0.187035 -0.0217077
-0.06841 0.171647 -0.037803
-0.0679582 0.171376 -0.037803
-0.0168603 0.0965612 0.0508676
-0.0824892 0.154647 0.0165535
-0.0869683 0.15291 0.0195549
-0.0470913 0.133332 0.0198959
-0.0435116 0.128155 0.0165535
-0.0719896 0.173285 -0.037803
-0.0729835 0.173315 -0.037803
-0.0724329 0.173388 -0.037803
-0.0855678 0.0942976 -0.0015653
-0.0854053 0.0906452 -0.0015653
-0.0869683 0.151222 0.00991579
-0.0402296 0.125005 0.0224072
-0.0544887 0.154144 0.0165535
-0.0747176 0.173388 -0.037803
0.0532477 0.0729852 0.00867073
0.0532477 0.0735037 0.0133104
0.0298784 0.119234 0.00392335
0.0334142 0.113739 -0.0015653
0.0309989 0.116505 -0.0015653
0.0293785 0.117759 -0.0015653
0.0298784 0.117512 -0.00116801
-0.0895585 0.0990013 0.0165535
-0.0896609 0.0983145 0.0165535
-0.0907689 0.114332 0.0346724
-0.0402296 0.124079 0.0238838
-0.0576485 0.156488 0.00997996
-0.0564059 0.156488 0.0102906
-0.0800316 0.11143 -0.0015653
-0.0762339 0.110175 -0.00648524
-0.0195593 0.186719 -0.0196841
-0.0669635 0.156298 0.0165535
-0.063599 0.156103 0.0162113
-0.0676894 0.156308 0.0165535
-0.0666422 0.156281 0.0165535
-0.063599 0.15612 0.0196737
-0.063599 0.156072 0.0130843
-0.063599 0.156122 0.0224182
-0.063599 0.155774 0.0247223
-0.0742025 0.156488 -0.00130164
-0.0741338 0.156605 -0.0015653
-0.0749408 0.156488 -0.00419284
0.0532477 0.0735937 0.015186
0.0551181 0.0731227 0.0165535
0.0532477 0.0730719 0.0177468
0.0544936 0.073198 0.0165535
0.0532477 0.0727409 0.0081329
-0.0869683 0.0931451 0.00341886
-0.08973 0.0915993 0.0165535
-0.0802456 0.112001 -0.0015653
-0.0808848 0.112844 -0.0015653
-0.0813357 0.110175 -0.000690025
-0.0478249 0.133332 0.022291
-0.0440405 0.12928 0.0165535
-0.0758479 0.172792 -0.037803
-0.056075 0.154978 0.0165535
0.0379116 0.110175 0.00781136
0.0379228 0.110175 0.0117964
0.0368573 0.111511 0.0165535
0.0379745 0.110175 0.00899696
0.0346805 0.111785 -0.0015653
0.0255294 0.120802 -0.0015653
0.0231519 0.122286 -0.0015653
0.0171989 0.125884 -0.0015653
0.0213166 0.1236 -0.0015653
-0.0738294 0.148013 -0.0196841
-0.0612125 0.155967 0.0165535
-0.0608631 0.155906 0.0165535
-0.0437111 0.128666 0.0165535
-0.0193878 0.186861 -0.0196841
-0.0738681 0.156263 0.0165535
0.057321 0.0719418 0.0165535
0.057044 0.0721567 0.0165535
0.00650904 0.129091 0.0266272
0.00650904 0.129517 0.0255775
0.00650904 0.128348 0.0278133
-0.0402296 0.127513 0.0156952
-0.0407892 0.127294 0.0165535
-0.0402296 0.128186 0.0141983
-0.0909653 0.133332 0.0106445
-0.0743953 0.15638 -0.0015653
0.0519933 0.0734329 0.0165535
0.0157532 0.119722 0.0346724
-0.0300099 0.179644 -0.0124536
0.0479256 0.0726737 0.0165535
0.0497815 0.0731998 0.0165535
-0.0402296 0.126241 0.0199585
-0.0826893 0.110175 0.00040614
0.0532477 0.0713015 0.0224828
0.0532477 0.0725888 0.019833
0.0464432 0.07489 0.0165535
-0.0869683 0.104019 0.00700141
-0.0873347 0.110388 0.0165535
-0.0869683 0.111945 0.0228797
-0.0300327 0.179644 -0.0123243
-0.0302038 0.179644 -0.0115638
-0.0295183 0.179644 -0.0132379
0.0471793 0.0734003 0.0165535
0.0470282 0.0736362 0.0165535
-0.054202 0.156488 0.0104635
-0.0428929 0.127924 0.0165535
0.0298784 0.119908 0.00718648
0.0268817 0.119661 -0.0015653
-0.0719306 0.178928 -0.0559218
-0.030659 0.179644 -0.00919132
-0.0306505 0.179644 -0.0100521
0.0532477 0.0710504 0.0228287
-0.0532076 0.156488 0.0107696
-0.0760513 0.155014 -0.0015653
0.0363371 0.112221 0.0165535
0.033905 0.115524 0.0165535
0.0298784 0.120038 0.010066
-0.0757345 0.150006 -0.0196841
-0.0597335 0.156488 0.00511419
-0.0250787 0.125519 0.0165535
-0.0869683 0.103169 0.0219361
-0.0869683 0.101797 0.0237476
-0.0402296 0.173723 -0.0067937
-0.0303008 0.179644 -0.00763422
0.00650904 0.130171 0.000790798
-0.0696877 0.110175 -0.0109935
-0.0715087 0.110175 -0.010027
-0.0651802 0.0357863 0.0165535
-0.0666995 0.0380063 0.0346724
-0.0666396 0.0381681 0.0346724
-0.0652821 0.0407062 0.0364424
-0.0657328 0.0407062 0.0342263
-0.063599 0.0380322 0.042232
-0.0641111 0.0407062 0.0394084
-0.063599 0.038362 0.0421502
-0.0625032 0.0407062 0.0426441
-0.0371464 0.0407062 0.0446595
-0.0684585 0.0407062 0.00972191
-0.0651342 0.0364813 0.0165535
-0.0658449 0.0407062 0.0132475
-0.066675 0.0407062 0.0120337
-0.063599 0.0381647 0.024363
-0.0649877 0.0407062 0.0376892
-0.0659902 0.0349861 0.0346724
-0.0667334 0.0362574 0.0346724
-0.0617671 0.0407062 0.0433661
-0.063599 0.0358142 0.0423225
-0.0844695 0.0775789 0.0165535
-0.0848308 0.0779438 0.0165535
-0.0848726 0.0780185 0.0165535
-0.0858716 0.0795586 0.0165535
-0.0377204 0.0407062 0.0439223
-0.0388044 0.0407062 0.0421271
-0.0402296 0.0385594 0.0426603
-0.036588 0.0407062 0.0453835
-0.0356106 0.0407062 0.0464207
-0.0337465 0.0407062 0.0497123
-0.0333992 0.0407062 0.050215
-0.0297406 0.0394947 0.0527912
-0.032472 0.0407062 0.0507544
-0.0295739 0.0407062 0.052449
-0.0289374 0.0410391 0.0527912
-0.0303737 0.0407062 0.0517428
-0.0264312 0.0407062 0.0539104
-0.0281949 0.0407062 0.0534675
-0.0298606 0.0380155 0.0527912
-0.0245857 0.0407062 0.0540909
-0.0249982 0.035636 0.0527912
-0.059615 0.0944221 -0.0196841
-0.0595669 0.0966883 -0.0196841
-0.0574478 0.0998548 -0.0196841
-0.0589632 0.0980251 -0.0196841
-0.063599 0.0359598 0.0181883
-0.0654328 0.0407062 0.0135795
-0.0642994 0.037521 0.0165535
-0.063599 0.0360927 0.0180559
-0.0633419 0.0407062 0.015034
-0.063599 0.0374208 0.0171095
-0.0635301 0.0383009 0.0165535
-0.0646906 0.0353057 0.0165535
-0.063599 0.0357786 0.0183858
-0.063599 0.0357851 0.018115
-0.063599 0.0355573 0.0222683
-0.0592145 0.0407062 0.0211705
-0.063599 0.0390142 0.0258611
-0.063599 0.0393719 0.0258339
-0.0651623 0.0407062 0.029159
-0.0652656 0.0407062 0.0293744
-0.0652349 0.0407062 0.0299731
-0.0651836 0.0407062 0.0325585
-0.0650506 0.0407062 0.032311
-0.063599 0.0439803 0.0322977
-0.063599 0.0421275 0.0394013
-0.063599 0.0428378 0.0386359
-0.0647684 0.0429293 0.0346724
-0.063599 0.0436391 0.0376002
0.0532477 0.0707232 0.00440952
-0.0704734 0.0407062 0.00464114
-0.0703681 0.0407062 0.00436332
-0.070421 0.0407062 0.00409272
-0.0709339 0.0407062 0.00655937
-0.0708214 0.0407062 0.00750471
-0.0696308 0.0407062 0.00881078
-0.0594665 0.0407062 0.0182531
-0.0593255 0.0421321 0.0165535
-0.059228 0.0407062 0.021066
-0.0582833 0.0407062 0.0193835
-0.0440616 0.170466 -0.0015653
-0.0797102 0.0968572 0.0346724
-0.0774455 0.103214 0.0346724
-0.0852053 0.133332 0.0479642
-0.0844457 0.133332 0.0486465
-0.0860119 0.133332 0.0470384
-0.0702203 0.0407062 0.000702619
-0.0704511 0.0407062 0.00272831
-0.063599 0.0417214 0.0141585
-0.0625176 0.0407062 0.0158852
-0.0622013 0.0402266 0.0165535
-0.0609009 0.0407062 0.016786
-0.0607123 0.0410352 0.0165535
-0.0795429 0.093677 0.0346724
-0.0528847 0.0490818 0.0346724
-0.0402296 0.0858815 -0.0216542
-0.0411974 0.0870189 -0.0214721
-0.0412053 0.0870189 -0.021469
-0.0402296 0.0877079 -0.0221391
-0.0402296 0.0867891 -0.0216748
-0.0411599 0.0870189 -0.0214801
-0.063599 0.0420065 0.013839
-0.063599 0.0439363 0.0111355
-0.0220776 0.0752635 0.0527912
-0.0197213 0.0692943 0.0527912
-0.0207323 0.072441 0.0527912
-0.0800217 0.0850841 0.0346724
-0.0782024 0.0870189 0.0371439
-0.0797177 0.0870189 0.0352316
-0.0801485 0.0883631 0.0346724
-0.0168603 0.0993127 0.0442904
-0.0869683 0.139857 0.040793
-0.0869683 0.138509 0.0421321
-0.0869683 0.135191 0.0445852
-0.0891627 0.133332 0.0414773
-0.063599 0.0456011 0.00881732
-0.0585212 0.0427294 0.0165535
-0.0565327 0.0436951 0.0165535
-0.0819265 0.133332 0.0505133
-0.0869683 0.0912513 0.0260528
-0.063599 0.0458009 0.00846812
-0.063599 0.0458841 0.00819559
-0.0546392 0.0445819 0.0165535
-0.0168603 0.0983773 0.0459517
-0.0168603 0.0973826 0.048668
-0.0168603 0.0986142 0.0455723
-0.0757043 0.0775129 0.0346724
-0.0734805 0.0745936 0.0346724
-0.0722933 0.0731469 0.0346724
-0.0869683 0.143011 0.0380099
-0.0850262 0.147969 0.0346724
-0.0521446 0.0461701 0.0165535
-0.0518885 0.0463961 0.0165535
-0.0515331 0.0468995 0.0165535
-0.0869683 0.144249 0.0365233
-0.0853061 0.147655 0.0346724
-0.0877172 0.144646 0.0346724
-0.0881091 0.143734 0.0346724
-0.0891766 0.140702 0.0346724
-0.0761807 0.156488 -0.00638091
-0.0765192 0.156488 -0.00810943
-0.0767262 0.156488 -0.0105316
-0.0869683 0.149177 0.0298579
-0.0787638 0.0818958 0.0346724
-0.0869683 0.0908487 0.0259871
-0.0869683 0.0919248 0.0260151
-0.0869683 0.0904473 0.0257861
-0.0855636 0.0870189 0.0261075
-0.0215038 0.0915584 0.0527912
-0.0226414 0.0870189 0.0545849
-0.0225131 0.0902014 0.0527912
-0.0504393 0.0487061 0.0165535
-0.0503433 0.0509674 0.0346724
-0.0519492 0.0495898 0.0346724
-0.0501265 0.0515096 0.0346724
-0.0869683 0.0882518 0.0243513
-0.0860051 0.0870189 0.0253022
-0.0869683 0.0867752 0.0230661
-0.0870757 0.0870189 0.0230526
-0.0282086 0.0870189 0.04636
-0.026994 0.0870189 0.0486738
-0.0869683 0.129204 0.0475204
-0.0869683 0.126621 0.0472594
-0.0869683 0.133189 0.0455998
-0.0869399 0.133332 0.0455866
-0.0790626 0.0825176 0.0346724
-0.0776328 0.0870189 0.0376045
-0.0779546 0.0808701 0.0346724
-0.0402296 0.167292 -0.0115052
-0.0402296 0.168526 -0.0113179
-0.0493656 0.0528364 0.0346724
-0.0255476 0.0870189 0.0512917
-0.0254418 0.0826485 0.0527912
-0.0248777 0.0790625 0.0527912
-0.0478935 0.167784 -0.0015653
-0.0459708 0.16914 -0.0015653
-0.0500996 0.0538012 0.0165535
-0.0500337 0.0507289 0.0165535
-0.0500016 0.052259 0.0165535
-0.0500496 0.0536221 0.0165535
-0.0756589 0.156488 -0.0054049
-0.0774302 0.153406 -0.0015653
-0.0491463 0.0557567 0.0346724
-0.0402296 0.0899259 -0.0231806
-0.0510517 0.0553035 0.0165535
-0.0491298 0.0559519 0.0346724
-0.051397 0.0557792 0.0165535
-0.051837 0.0560287 0.0165535
-0.0168603 0.0599936 0.0516797
-0.0768866 0.0870189 0.0381365
-0.0543274 0.0569909 0.0165535
-0.0492703 0.0611685 0.0346724
-0.0494633 0.0619852 0.0346724
-0.0483951 0.0638625 0.0363678
-0.0821834 0.110175 0.0292623
-0.0866031 0.133332 0.0462434
-0.0834762 0.0870189 0.0299618
-0.0846532 0.0870189 0.0274281
-0.0780028 0.17148 -0.037803
-0.0869683 0.101241 0.0241246
-0.0820599 0.0870189 0.0317739
-0.0483327 0.0638625 0.0364379
-0.0453415 0.0638625 0.0393729
-0.0258342 0.0638625 0.0402534
-0.0242189 0.0638625 0.0424165
-0.0225922 0.0638625 0.0450911
-0.063599 0.0608984 0.0212368
-0.0869683 0.114839 0.0456057
-0.0869683 0.14738 0.0321699
-0.0784114 0.170942 -0.037803
-0.076834 0.104829 0.0346724
-0.0528647 0.0490869 0.0346724
-0.0869683 0.123996 0.047909
-0.0869683 0.1207 0.0481559
-0.0801286 0.0905284 0.0346724
-0.0742462 0.0870189 0.0397815
-0.0500756 0.0635467 0.0346724
-0.048569 0.0638625 0.0362044
-0.0190725 0.0937547 0.0527912
-0.0869683 0.0977003 0.0255267
0.00650904 0.108309 -0.0201818
0.00486617 0.110175 -0.0202288
0.00373875 0.110175 -0.0201961
-0.0829185 0.114869 -0.0015653
-0.0836985 0.116756 -0.0015653
-0.0771836 0.106387 0.0346724
-0.0768296 0.104984 0.0346724
-0.025075 0.0870189 0.0521159
-0.024922 0.0856614 0.0527912
-0.0242603 0.0870189 0.0530459
-0.0244368 0.0871633 0.0527912
-0.0402296 0.15235 -0.00710768
-0.0514596 0.0870189 -0.0216676
-0.0549384 0.0870189 -0.021706
-0.0729 0.149973 -0.037803
-0.073225 0.150829 -0.037803
-0.0197072 0.0638625 0.0497184
-0.0192229 0.0638625 0.0504785
-0.0511398 0.0870189 -0.0216165
-0.0869683 0.116863 0.0473239
-0.0402296 0.160227 -0.0116446
-0.0402296 0.163027 -0.0117834
-0.0874891 0.133332 0.0446519
-0.0869683 0.134085 0.0452125
-0.0294553 0.0365223 0.0527912
-0.0869683 0.117959 0.0476974
-0.0246771 0.0785272 0.0527912
-0.0672439 0.133332 -0.00834607
-0.0651287 0.133332 -0.00829015
-0.063599 0.134424 -0.00772726
-0.063599 0.135327 -0.00762266
-0.063599 0.13856 -0.00728129
-0.0219569 0.0870189 0.0551333
-0.0869683 0.148061 0.0313297
-0.0603518 0.0890422 -0.0196841
-0.0590796 0.0870189 -0.020703
-0.0611324 0.0840318 -0.0196841
-0.0566486 0.0870189 -0.0212878
-0.0579703 0.0870189 -0.0211841
-0.0242467 0.0778401 0.0527912
-0.0710749 0.0870189 0.0416436
-0.0402296 0.103231 -0.0207056
-0.0402296 0.10442 -0.0204198
-0.0397278 0.108333 -0.0196841
-0.0392699 0.110175 -0.0187237
-0.0402296 0.108488 -0.0195502
-0.0398103 0.108318 -0.0196841
-0.0402296 0.108002 -0.0198235
-0.0896881 0.133332 0.0402149
-0.024813 0.0788003 0.0527912
-0.0869683 0.150019 0.028377
-0.0767898 0.163448 -0.0196841
-0.0419263 0.0407062 -0.0234741
-0.046192 0.0345986 -0.0196841
-0.0914439 0.133332 0.0219939
-0.0904327 0.133332 0.028782
-0.063599 0.0358955 0.0229016
-0.063599 0.0364898 0.0240952
-0.0440996 0.0407062 -0.0211137
-0.0422909 0.0407062 -0.0232361
-0.0435228 0.0407062 -0.0222789
-0.0458507 0.0382254 -0.0196841
-0.0444408 0.0407062 -0.0202875
-0.0451102 0.039574 -0.0196841
-0.0446285 0.0407062 -0.0188093
-0.0460205 0.0370599 -0.0196841
-0.0468124 0.0407062 -0.0125057
-0.0869683 0.128288 -0.000582059
-0.0848727 0.133332 -0.000620162
-0.0865838 0.127636 -0.0015653
-0.0865892 0.127601 -0.0015653
-0.0596455 0.0407062 0.021591
-0.063599 0.0404147 0.0257859
-0.0618027 0.0407062 0.0238705
-0.0613173 0.0407062 0.0234292
-0.0648721 0.0407062 0.0284606
-0.0638678 0.0407062 0.026328
-0.063599 0.0415962 0.0266867
-0.063599 0.0419341 0.0270395
-0.063599 0.044101 0.0316187
-0.0782415 0.167028 -0.037803
-0.079156 0.168022 -0.037803
-0.0772933 0.166489 -0.037803
-0.0675162 0.16799 -0.0559218
-0.0675342 0.168113 -0.0559218
-0.0402296 0.036431 -0.0284267
-0.0402296 0.0406721 -0.0264883
-0.0402044 0.0407062 -0.0264849
-0.0402296 0.0388254 -0.0276586
-0.0448173 0.0407062 -0.0176285
-0.0466664 0.0407062 -0.0129865
-0.0690155 0.0393137 -0.0015653
-0.0699855 0.0407062 0.00023509
-0.070178 0.0407062 0.000438301
-0.0677846 0.0412693 -0.0015653
-0.0777205 0.161271 -0.0196841
-0.0869683 0.131098 0.00119676
-0.0852605 0.133332 -2.2363e-05
-0.0924036 0.114785 0.0165535
-0.0419078 0.0407062 -0.0239119
-0.040531 0.0407062 -0.0261221
-0.0402296 0.0409545 -0.0262277
-0.0433621 0.0429126 -0.0196841
-0.0431385 0.0432278 -0.0196841
-0.0402296 0.0456844 -0.0210041
-0.0468232 0.0407062 -0.0122803
-0.063599 0.0444805 -0.00173619
-0.0641359 0.0443066 -0.0015653
-0.063599 0.0451871 2.73704e-05
-0.0653023 0.0437348 -0.0015653
-0.0662654 0.0426751 -0.0015653
-0.0746741 0.153854 -0.0196841
-0.0746052 0.153619 -0.0196841
-0.063599 0.0445179 0.0327393
-0.0643748 0.0435432 0.0346724
-0.063599 0.0443033 0.0358546
-0.0488454 0.16696 -0.0015653
-0.063599 0.0460575 0.00216578
-0.0918053 0.133332 0.0195975
-0.0916852 0.133332 0.0166498
-0.0916154 0.133451 0.0165535
-0.091703 0.133332 0.0183047
-0.0743239 0.164237 -0.037803
-0.0746367 0.164696 -0.037803
-0.0402296 0.0430041 -0.0233914
-0.0402296 0.0413767 -0.0255844
-0.0402296 0.0424295 -0.0240741
-0.063599 0.0941493 -0.0186804
-0.063599 0.092845 -0.0187097
-0.063599 0.0952624 -0.0184142
-0.0628361 0.0452122 0.0346724
-0.0615442 0.0462368 0.0346724
-0.0793594 0.168231 -0.037803
-0.0754614 0.156488 -0.0219435
-0.0771884 0.156488 -0.0196496
-0.0771932 0.156512 -0.0196841
-0.0402296 0.0446576 -0.0226167
-0.0402296 0.0455876 -0.0213282
-0.0575968 0.0479519 -0.0015653
-0.0599273 0.0462067 -0.0015653
-0.0580685 0.0476171 -0.0015653
-0.063599 0.0434168 -0.00377202
-0.063599 0.046429 0.00382934
-0.063599 0.0465007 0.00549208
-0.063599 0.046564 0.00452951
-0.0591126 0.0474854 0.0346724
-0.0566164 0.0483614 0.0346724
-0.0528393 0.162074 -0.0015653
-0.0517404 0.163814 -0.0015653
-0.0402296 0.0460332 -0.0200363
-0.0403278 0.0460612 -0.0196841
-0.0402296 0.0467169 -0.0166044
-0.0402296 0.098015 -0.0219244
0.0172947 0.110175 -0.0166442
-0.0574342 0.0482854 -0.0015653
-0.0545447 0.0489781 0.0346724
-0.0528934 0.0490825 0.0346724
-0.0359053 0.0476517 -0.0196841
-0.0393447 0.0464836 -0.0196841
-0.0718286 0.149167 -0.037803
-0.0869683 0.112003 0.0230422
-0.0917487 0.143016 0.0165535
-0.0910831 0.145463 0.0165535
-0.0724184 0.156488 -0.0355569
-0.0730651 0.161517 -0.037803
-0.0735891 0.16318 -0.037803
-0.0733653 0.16288 -0.037803
-0.0340568 0.0482588 -0.0196841
-0.0330784 0.0486865 -0.0196841
-0.0345959 0.048086 -0.0196841
-0.0565513 0.0501753 -0.0015653
-0.050107 0.165393 -0.0015653
-0.031248 0.0495736 -0.0196841
-0.0302956 0.050464 -0.0196841
-0.0298586 0.0506719 -0.0196841
0.0344466 0.110175 -0.0051161
0.0337758 0.110175 -0.00608868
-0.0561875 0.0529633 -0.0015653
-0.0821093 0.137202 -0.0015653
-0.0818673 0.137756 -0.0015653
-0.032793 0.107401 -0.0196841
-0.032574 0.110175 -0.0183239
-0.0289906 0.108796 -0.0196841
-0.0292665 0.110175 -0.0182817
-0.0275582 0.110175 -0.0189745
-0.0346577 0.10854 -0.0196841
-0.0297637 0.0509979 -0.0196841
-0.0725372 0.153547 -0.037803
-0.029905 0.0534616 -0.0196841
-0.0725252 0.156488 -0.0350356
-0.0726743 0.156488 -0.0337604
-0.0720324 0.156068 -0.037803
-0.0694771 0.17549 -0.0559218
-0.0688041 0.173728 -0.0559218
-0.0672176 0.179644 -0.0595934
-0.0680882 0.179644 -0.0583052
-0.0302469 0.0558746 -0.0196841
-0.0560493 0.0554686 -0.0015653
-0.0560888 0.0567124 -0.0015653
-0.058708 0.0580831 0.0165535
-0.0563224 0.0576622 0.0165535
-0.0904758 0.133332 0.00767204
-0.0572504 0.0596821 -0.0015653
-0.0588155 0.0581325 0.0165535
-0.0232458 0.180693 -0.0196841
-0.018557 0.179644 -0.0241671
-0.0168603 0.179057 -0.0256097
-0.0211976 0.179644 -0.0220455
-0.0201681 0.179644 -0.0227481
-0.0573635 0.0598034 -0.0015653
-0.0905252 0.135339 0.0165535
-0.0793473 0.168366 -0.037803
-0.0914573 0.129173 0.0346724
-0.0900657 0.133332 0.0302371
-0.0712024 0.156488 -0.0439325
-0.0256692 0.179644 -0.0179779
-0.0246587 0.179644 -0.0188687
-0.0234869 0.179644 -0.0197737
-0.0235148 0.179842 -0.0196841
-0.0302054 0.0580837 -0.0196841
-0.0305429 0.0595269 -0.0196841
0.00650904 0.104918 -0.0211533
0.00650904 0.104962 -0.0211334
-0.0402296 0.0349413 -0.0287782
-0.00327237 0.112546 -0.0196841
-0.00513227 0.110175 -0.0219011
-0.0678393 0.0637425 -0.0015653
-0.0680307 0.0638625 -0.00154327
-0.063599 0.0618406 -0.00243282
-0.0650776 0.0620999 -0.0015653
-0.063599 0.0615187 -0.000514415
-0.0656422 0.0622869 -0.0015653
-0.0595567 0.0936554 -0.0196841
-0.0602131 0.0903574 -0.0196841
-0.063599 0.166788 -0.0605035
-0.063599 0.165614 -0.0602027
-0.0773824 0.156488 -0.0130675
-0.077435 0.156488 -0.0146813
-0.0190562 0.168018 -0.0196841
-0.0185838 0.167638 -0.0196841
-0.0168603 0.168653 -0.0211137
-0.0168603 0.166816 -0.0196315
-0.0160467 0.166524 -0.0196841
-0.0694687 0.156488 -0.0513835
-0.0682949 0.156488 -0.0529529
-0.0674454 0.159634 -0.0559218
-0.0271794 0.0638625 -0.0304765
-0.025284 0.0638625 -0.0324483
-0.0297652 0.0638625 -0.0257626
-0.0300647 0.0638625 -0.0243379
-0.0302058 0.0638625 -0.0234291
-0.0402296 0.171769 -0.00974588
-0.0900128 0.133332 0.0374297
-0.0900569 0.133332 0.0371633
-0.0895837 0.13907 0.0346724
-0.028348 0.123729 -0.0015653
-0.0267116 0.123897 -0.0015653
-0.0329005 0.0638625 -0.0163192
-0.0337937 0.0638625 -0.0146209
-0.0168603 0.0363791 -0.0270073
-0.0168603 0.0369054 -0.0271978
-0.0204529 0.0407062 -0.0286326
-0.0691545 0.0647768 -0.0015653
-0.0676019 0.0638625 -0.00216393
-0.0686706 0.0643091 -0.0015653
-0.0689007 0.06452 -0.0015653
-0.068585 0.0638625 -0.000337601
-0.0612994 0.0870189 -0.0192783
-0.063599 0.0880661 -0.0190164
-0.0402296 0.123226 -0.0102389
-0.0402296 0.116958 -0.0144665
-0.0402296 0.121946 -0.0114801
-0.059213 0.156488 0.00294098
-0.0283371 0.0638625 -0.0289637
-0.0293083 0.0638625 -0.0278628
-0.031115 0.0615436 -0.0196841
-0.0309646 0.0638625 -0.0215626
-0.0323472 0.0638625 -0.0181874
-0.0320097 0.0638625 -0.0190542
-0.0318862 0.0643724 -0.0196841
0.0298784 0.0983496 -0.0162905
0.0298784 0.0955374 -0.0177523
-0.0718582 0.0676769 -0.0015653
-0.0692027 0.0638625 0.00125316
-0.0707841 0.0638625 0.00344079
-0.035504 0.0870189 -0.0242709
-0.0534491 0.161125 -0.0015653
-0.0894159 0.140158 0.0346724
-0.0879472 0.133332 0.00268804
-0.0869683 0.13358 0.00175663
-0.0828268 0.133332 -0.0022876
-0.0835423 0.133671 -0.0015653
-0.0843 0.132462 -0.0015653
-0.0844582 0.133332 -0.00101819
-0.0832558 0.134542 -0.0015653
-0.0321791 0.0655983 -0.0196841
-0.0327435 0.0671865 -0.0196841
-0.0512982 0.105036 -0.0196841
-0.0472412 0.106141 -0.0196841
-0.063599 0.125571 -0.00882713
-0.0893941 0.133332 0.00452181
-0.0789034 0.170188 -0.037803
-0.0168603 0.183932 -0.0251019
-0.0168603 0.182458 -0.0256258
-0.0168603 0.180616 -0.0255935
-0.0161654 0.179644 -0.0261918
-0.0741487 0.0697611 -0.0015653
-0.0763726 0.0710418 -0.0015653
-0.078817 0.149335 -0.0015653
-0.0781161 0.15063 -0.0015653
-0.0790521 0.148653 -0.0015653
-0.0279574 0.179644 -0.0152542
-0.0245457 0.0638625 -0.0329691
-0.0159808 0.110175 -0.0199888
-0.0168603 0.111828 -0.0193955
-0.0164324 0.111024 -0.0196841
-0.0142059 0.110049 -0.0196841
-0.0141436 0.110175 -0.0196121
-0.0168603 0.109456 -0.0201348
-0.0180888 0.110175 -0.0198012
-0.01852 0.110428 -0.0196841
-0.0168603 0.107963 -0.021348
-0.0809523 0.0729474 0.0165535
-0.0804098 0.0717621 0.0165535
0.00977442 0.0870189 -0.0317062
0.0110027 0.0870189 -0.0310985
-0.0779019 0.0724511 -0.0015653
-0.0805047 0.0757167 -0.0015653
-0.0744966 0.148737 -0.0196841
-0.0736111 0.147696 -0.0196841
-0.0748619 0.156488 -0.0228135
-0.0679178 0.171159 -0.0559218
-0.0869683 0.15083 0.00940907
-0.0347152 0.0723126 -0.0196841
0.0168631 0.126042 -0.0015653
-0.0812118 0.0764588 -0.0015653
-0.0823961 0.0802776 -0.0015653
-0.0818614 0.0750964 0.0165535
-0.0820273 0.0753079 0.0165535
-0.0869683 0.145903 0.00809585
-0.0869683 0.14801 0.008031
-0.0869683 0.144274 0.00828165
-0.070871 0.156488 -0.0454524
-0.0696023 0.156488 -0.0508217
-0.0716866 0.156488 -0.0400965
-0.073542 0.156488 -0.0284418
-0.0740693 0.156488 -0.0260969
-0.0689077 0.133332 -0.00846528
-0.0909769 0.149927 0.0165535
0.0298784 0.0879969 -0.020525
0.0279856 0.0951502 -0.0196841
0.0292482 0.0925623 -0.0196841
0.0255593 0.0870189 -0.0233793
-0.0447036 0.0870189 -0.0217792
-0.0507166 0.0870189 -0.0216526
-0.00103662 0.111677 -0.0196841
-0.00344959 0.110175 -0.0214037
0.000173938 0.110175 -0.0200758
-0.022614 0.0709979 -0.037803
-0.0335078 0.0696668 -0.0196841
-0.0352043 0.0738964 -0.0196841
0.0228549 0.101998 -0.0196841
0.0228053 0.102031 -0.0196841
0.0228426 0.102016 -0.0196841
-0.0825426 0.0806207 -0.0015653
0.00879175 0.109442 -0.0196841
0.00913094 0.110175 -0.0195138
0.0104198 0.106876 -0.0196841
0.00912012 0.10845 -0.0196841
0.0114567 0.110175 -0.018833
0.00650904 0.110077 -0.0201372
0.00645345 0.110175 -0.0201379
0.00650904 0.107631 -0.0201718
-0.0825605 0.0807695 -0.0015653
-0.0866845 0.0835518 0.0165535
-0.0758471 0.151385 -0.0196841
-0.0758611 0.151164 -0.0196841
-0.0758772 0.151328 -0.0196841
-0.0353279 0.0750473 -0.0196841
-0.0356539 0.0781931 -0.0196841
-0.063599 0.174633 -0.0613615
-0.063599 0.176193 -0.0612512
-0.0846409 0.0838472 -0.0015653
-0.0869683 0.148665 0.00827508
-0.077829 0.152097 -0.0015653
0.00650904 0.114663 -0.018677
0.00603045 0.112782 -0.0196841
0.00650904 0.113371 -0.0193231
-0.0780523 0.0870189 -0.011409
-0.0801597 0.0870189 -0.00845181
-0.080557 0.0870189 -0.0077501
-0.0824816 0.0870189 -0.00588807
-0.0810935 0.0870189 -0.00719026
-0.0869683 0.0844986 0.00577697
-0.0869683 0.0847621 0.0096666
-0.0869683 0.0848183 0.00807635
-0.0869683 0.0849543 0.00906224
-0.0882541 0.0870189 0.00892523
-0.086711 0.084352 0.0165535
-0.0869683 0.084436 0.0124119
-0.0869683 0.0845083 0.0126036
-0.0881487 0.0870189 0.0149009
-0.0861883 0.0800719 0.0165535
-0.0862053 0.0801805 0.0165535
-0.0861845 0.0800553 0.0165535
-0.0918016 0.142027 0.0165535
0.0298784 0.117 -0.00261831
0.0298784 0.11214 -0.00895118
-0.0748657 0.154677 -0.0196841
-0.0775357 0.0870189 -0.0119586
-0.0849575 0.0842599 -0.0015653
-0.0869683 0.0851065 0.00349584
-0.0869683 0.0848681 0.0175907
-0.0882041 0.0870189 0.0183234
-0.0881443 0.0870189 0.0149973
-0.0871995 0.0853076 0.0165535
-0.0869683 0.0848888 0.0169343
-0.0869683 0.0861022 0.0221704
-0.0877707 0.0870189 0.0208656
-0.0547381 0.157474 -0.0015653
-0.0695281 0.156488 -0.0511919
0.0312615 0.087688 -0.0196841
0.0298784 0.0863919 -0.0205783
0.0303015 0.0870189 -0.0202976
0.0293985 0.0921665 -0.0196841
0.0298784 0.0904061 -0.0198279
0.0309204 0.088592 -0.0196841
0.0311497 0.0870189 -0.0198485
0.0315295 0.0866113 -0.0196841
0.0305842 0.0870189 -0.0200729
0.0286327 0.0870189 -0.0214052
0.0298784 0.0873435 -0.0205786
-0.0886216 0.0870189 0.0107415
-0.0882016 0.0870189 0.0147053
-0.0886825 0.0870189 0.0123957
-0.0885299 0.087648 0.0165535
-0.0894888 0.0898617 0.0165535
-0.0918107 0.142293 0.0165535
-0.0290529 0.0870189 -0.0330069
-0.0315755 0.0870189 -0.0270816
-0.0770455 0.0870189 -0.0125837
-0.074766 0.0870189 -0.0148445
-0.0851262 0.0846901 -0.0015653
-0.0832192 0.0870189 -0.00492293
-0.084806 0.0870189 -0.00272522
-0.0850557 0.0861559 -0.0015653
-0.0852066 0.0870189 -0.00123411
-0.0869683 0.0867423 0.00179386
-0.0868513 0.0870189 0.00159503
-0.0869683 0.0868067 0.00177995
-0.0870262 0.0870189 0.00190177
-0.0884201 0.0870189 0.00697449
-0.0879418 0.0870189 0.00455434
-0.0882253 0.0870189 0.00542606
-0.0765558 0.156011 -0.0196841
-0.0745329 0.156488 -0.02373
-0.0298213 0.0870189 -0.031581
-0.0313085 0.0870189 -0.0275811
-0.085276 0.0892238 -0.0015653
-0.0869683 0.142881 0.00929023
-0.063599 0.169003 -0.0608742
-0.031923 0.0870189 -0.0263084
-0.0326256 0.0870189 -0.0254965
-0.0869683 0.0895311 0.00204045
-0.0869683 0.0906411 0.00275739
-0.0745588 0.110175 -0.00816132
-0.0268779 0.0870189 -0.035466
-0.0743162 0.0870189 -0.0151249
-0.0869683 0.0925937 0.00372306
0.0532477 0.0682304 0.00148357
0.000810223 0.113478 -0.0196841
-0.019282 0.186901 -0.0196841
0.0370782 0.0870189 -0.0159742
0.0372212 0.0870189 -0.01585
-0.0168603 0.10234 -0.0235397
0.00650904 0.118167 -0.0160369
0.00650904 0.118823 -0.0152622
0.00650904 0.112073 -0.0198887
0.00736489 0.112113 -0.0196841
-0.00799185 0.112862 -0.0196841
-0.0168603 0.185603 -0.0242929
-0.0402296 0.113617 -0.0166143
-0.043596 0.110175 -0.0182656
0.00650904 0.0990067 -0.022786
0.00650904 0.101044 -0.0215561
0.00650904 0.123734 -0.00978149
0.0532477 0.0676997 0.00117777
-0.0168603 0.0354617 -0.0266874
-0.0168603 0.0362443 -0.0269509
0.0532477 0.068887 0.00217164
0.0532477 0.0663201 0.000427502
0.0512579 0.0647949 -0.0015653
-0.0402296 0.116807 -0.0145715
-0.0402296 0.11684 -0.0145454
-0.0402296 0.116849 -0.0145334
0.013555 0.110175 -0.0183581
0.0123281 0.105144 -0.0196841
0.020815 0.0870189 -0.0259397
0.0177373 0.0870189 -0.0278208
-0.0589519 0.156488 0.00243176
-0.0548751 0.15725 -0.0015653
-0.049941 0.110175 -0.0185921
-0.0439674 0.110175 -0.0182782
-0.0470916 0.110175 -0.0178585
-0.063599 0.173053 -0.0614262
-0.0500479 0.110175 -0.0186103
-0.0507062 0.110175 -0.0185298
-0.063599 0.0417858 -0.00583246
-0.063599 0.0389596 -0.00726591
-0.0625638 0.0407062 -0.00698338
-0.0619169 0.0407062 -0.00718747
-0.0644855 0.0407062 -0.00623611
-0.063599 0.0410683 -0.00643881
-0.0355586 0.109034 -0.0196841
-0.0351801 0.110175 -0.0190242
0.00650904 0.101647 -0.0213125
-0.00998003 0.112234 -0.0196841
-0.00618058 0.112769 -0.0196841
-0.00630902 0.110175 -0.0219291
-0.00886425 0.112757 -0.0196841
-0.00967433 0.110175 -0.0212168
0.0298784 0.106714 -0.0126602
-0.063599 0.154576 0.00305803
-0.0567456 0.156488 2.36942e-05
-0.0550705 0.156891 -0.0015653
-0.0168603 0.0959259 -0.0310626
-0.0113379 0.179644 -0.0295923
-0.0168603 0.0985623 -0.0244073
-0.0168603 0.0981083 -0.0249388
-0.0168603 0.0999085 -0.024158
-0.063599 0.153595 0.00172317
-0.063599 0.152644 0.000264406
-0.0640609 0.152652 -0.0015653
-0.0553341 0.156488 -0.00164141
-0.0554729 0.156397 -0.0015653
-0.0558374 0.154693 -0.0015653
0.0159886 0.110175 -0.0173125
-0.0229096 0.110175 -0.0201918
-0.0221976 0.110923 -0.0196841
-0.0259839 0.109894 -0.0196841
-0.0264397 0.110175 -0.019313
-0.0150215 0.179644 -0.027205
-0.0125824 0.179644 -0.0288617
-0.0168603 0.112888 -0.0188995
-0.0587375 0.148922 -0.0015653
-0.0566718 0.150246 -0.0015653
-0.0561481 0.153795 -0.0015653
-0.0577386 0.148444 -0.0015653
0.0209472 0.110175 -0.015299
0.0189022 0.110175 -0.0160838
-0.0598416 0.148263 -0.0015653
0.0298784 0.0998317 -0.0160787
0.0253443 0.0988355 -0.0196841
0.0298784 0.103709 -0.0147401
0.0179626 0.104196 -0.0196841
0.0150251 0.104664 -0.0196841
-0.0344795 0.0407062 -0.0297893
-0.0362476 0.0407062 -0.0292028
-0.0339454 0.0407062 -0.0298065
-0.063599 0.152224 -0.00179414
-0.0633833 0.152092 -0.0015653
-0.0609324 0.149236 -0.0015653
-0.0168603 0.123936 -0.00573002
0.00650904 0.097748 -0.0253809
-0.0432534 0.110175 -0.0183328
-0.0402296 0.112527 -0.0173461
-0.0360218 0.10902 -0.0196841
-0.0365522 0.110175 -0.0189989
0.00650904 0.097042 -0.026575
0.00650904 0.0954348 -0.0293157
-0.0507461 0.0407062 -0.0110527
-0.0558551 0.144071 -0.0015653
0.0236414 0.110175 -0.0135693
-0.063599 0.1174 -0.0098361
-0.063599 0.11562 -0.0113357
-0.063599 0.117969 -0.00962565
-0.0168603 0.0920601 -0.0358005
0.034493 0.0870189 -0.0178747
0.0140456 0.104779 -0.0196841
0.0272926 0.0962152 -0.0196841
0.027575 0.0955627 -0.0196841
0.0298784 0.0939867 -0.0189395
-0.0370523 0.0407062 -0.0287944
0.00650904 0.101319 -0.0213746
-0.0385792 0.0407062 -0.0276552
-0.0168603 0.125471 -0.00276111
-0.0168603 0.120439 -0.00999044
0.0324053 0.110175 -0.0080771
0.0298784 0.111741 -0.00948219
-0.0557466 0.143908 -0.0015653
-0.0556316 0.143768 -0.0015653
-0.0552665 0.144729 -0.0015653
-0.0558571 0.14423 -0.0015653
0.0226641 0.0870189 -0.0246975
0.0234194 0.0870189 -0.0242914
0.00650904 0.0931149 -0.0315384
0.00650904 0.090039 -0.0328971
-0.0168603 0.11441 -0.0173279
-0.011878 0.110175 -0.0203683
-0.0124715 0.110838 -0.0196841
-0.0168603 0.0964772 -0.0294885
-0.0168603 0.0958542 -0.0312599
-0.0671895 0.179644 -0.0596152
0.00650904 0.0943985 -0.030227
5.29248e-05 0.11313 -0.0196841
-0.0667512 0.0407062 -0.00493606
-0.0121525 0.0870189 -0.0384638
-0.0122486 0.0884485 -0.037803
-0.0117937 0.0870189 -0.0382968
-0.0109788 0.0872507 -0.037803
-0.012264 0.0870189 -0.0384636
-0.0168603 0.0909127 -0.0366565
-0.0139444 0.0884424 -0.037803
-0.0168603 0.0876018 -0.0383784
-0.0128371 0.0870189 -0.0384908
0.0050538 0.113054 -0.0196841
0.00131706 0.113593 -0.0196841
-0.000433506 0.129148 -0.0015653
-0.0168603 0.117419 -0.0149035
-0.0168603 0.11825 -0.0138336
-0.0204319 0.110175 -0.0202808
-0.0207717 0.110995 -0.0196841
0.0298784 0.0777164 -0.0212891
0.0298784 0.0822609 -0.0202443
0.0471663 0.0638625 -0.00195956
0.0468944 0.0643627 -0.0015653
0.0503578 0.064728 -0.0015653
0.0516339 0.0644514 -0.0015653
0.0532477 0.0641852 -0.000845096
0.0532477 0.0602209 -0.00296543
0.0538 0.0622867 -0.0015653
0.0542213 0.0638625 -0.000497322
-0.0402296 0.0474479 -0.0143399
-0.0402296 0.0477581 -0.0127879
-0.0402296 0.048285 -0.0121228
0.0440862 0.0638625 -0.0016103
0.044006 0.0639119 -0.0015653
0.0506986 0.0638625 -0.00223733
0.00732363 0.0870189 -0.0328421
0.00650904 0.0893672 -0.0331061
-0.0168603 0.0915039 -0.0363463
0.00206744 0.0870189 -0.0341185
0.0169712 0.0870189 -0.0283201
-0.0305045 0.0407062 -0.0299966
-0.0538193 0.138189 -0.0015653
-0.0537395 0.137643 -0.0015653
-0.0532826 0.137278 -0.0015653
-0.0542756 0.140082 -0.0015653
0.0437104 0.0638473 -0.0015653
0.0437162 0.0638625 -0.0015559
-0.063599 0.11405 -0.0124531
-0.0168603 0.116081 -0.0163185
-0.0477696 0.0407062 -0.011728
-0.0498969 0.0407062 -0.011084
0.0148563 0.104672 -0.0196841
-0.0427975 0.107831 -0.0196841
-0.0545491 0.133332 -0.00432275
-0.0221758 0.0863224 -0.037803
-0.022268 0.0870189 -0.0374822
-0.0262207 0.0870189 -0.0361038
-0.0186803 0.0883458 -0.037803
0.0298784 0.10451 -0.0144321
0.0298784 0.105244 -0.013944
-0.0527252 0.133332 -0.0036993
-0.0504099 0.132269 -0.0015653
-0.0496924 0.130538 -0.0015653
0.0298784 0.0824262 -0.0202256
-0.0168603 0.100931 -0.0237438
0.0435832 0.0638625 -0.00158822
0.0436151 0.0638915 -0.0015653
-0.0168603 0.127595 0.00323966
-0.0119976 0.127429 -0.0015653
-0.0158172 0.126162 -0.0015653
0.002576 0.129204 -0.0015653
-0.0168603 0.091285 -0.0364844
0.0298784 0.111686 -0.00952391
0.0313339 0.110175 -0.0091713
0.0298784 0.107574 -0.0119633
-0.0527606 0.133332 -0.00373957
-0.0527779 0.133332 -0.00375074
-0.052766 0.133332 -0.00374199
-0.0406928 0.127471 -0.0015653
-0.0402296 0.127634 -0.000745209
-0.0372461 0.126823 -0.0015653
0.00650904 0.13012 0.000633369
0.00615118 0.129129 -0.0015653
0.00650904 0.129971 0.000290783
0.00739916 0.128971 -0.0015653
0.0115889 0.128059 -0.0015653
0.0142139 0.127088 -0.0015653
-0.0571718 0.0407062 -0.00893274
-0.00910049 0.085811 -0.037803
-0.00978055 0.0870189 -0.0374071
-0.0485071 0.128855 -0.0015653
-0.0476889 0.128779 -0.0015653
0.0298784 0.0925149 -0.0193493
-0.0222998 0.124811 -0.0015653
-0.0168603 0.12589 -0.00153564
-0.0168374 0.125886 -0.0015653
-0.000616064 0.12918 -0.0015653
-0.000174965 0.129183 -0.0015653
-0.00087965 0.129181 -0.0015653
0.00145422 0.110175 -0.0201727
0.0280083 0.110175 -0.0116632
0.0294106 0.110175 -0.0108214
-0.0174781 0.0887646 -0.037803
-0.0402296 0.0339861 -0.0293662
0.00650904 0.0361044 -0.0233653
0.0126445 0.0347349 -0.0196841
0.0254321 0.110175 -0.0130087
-0.0571037 0.133332 -0.00585148
0.00650904 0.127009 -0.0059039
0.00650904 0.126321 -0.00683655
-0.063599 0.178111 -0.0607123
-0.0226533 0.124739 -0.0015653
-0.0168603 0.12569 -0.00220522
0.0514523 0.0638625 -0.00197734
-0.0402296 0.126562 -0.00425814
0.00650904 0.0342109 -0.0209153
0.00650904 0.0351479 -0.0221423
0.0123492 0.0346668 -0.0196841
0.00650904 0.0341988 -0.019819
0.0063533 0.0341961 -0.0196841
0.00800695 0.0342029 -0.0196841
0.00432332 0.0341809 -0.0196841
-0.0168603 0.0342928 -0.025516
0.00650904 0.0364154 -0.0234728
-0.0290545 0.0407062 -0.0296621
-0.0215742 0.0407062 -0.0288658
-0.0245594 0.171145 -0.0196841
-0.0564397 0.100751 -0.0196841
-0.0670343 0.0335247 -0.0015653
0.0143412 0.0407062 -0.0228542
0.00120749 0.0407062 -0.0246186
-0.00279583 0.0407062 -0.0253508
-0.063599 0.0978894 -0.017354
-0.063599 0.100457 -0.0177992
-0.0357941 0.156488 -0.0106541
