-0.0675486 0.156302 0.0194367
-0.0869683 0.152534 0.0132723
-0.0659989 0.154789 -0.0039326
-0.066932 0.155603 -0.0039326
-0.0654539 0.154288 -0.0039326
-0.0680799 0.171838 -0.0389866
-0.028545 0.122119 0.0233729
-0.028545 0.119435 0.0291852
-0.0471596 0.134397 0.0113588
-0.0459826 0.131688 0.00775207
-0.0471904 0.134397 0.0112143
-0.0693527 0.154328 0.0311214
-0.028545 0.125645 0.0140177
0.0532477 0.0693244 0.0245298
-0.0133286 0.18423 -0.0273019
-0.0116433 0.182969 -0.0273019
-0.00948466 0.0993425 0.0493282
-0.00517563 0.0998736 0.0489638
-0.063599 0.15292 0.0341206
-0.0649155 0.154183 0.0311214
-0.063599 0.155787 0.0104921
-0.0653582 0.15531 0.00775207
-0.046423 0.13256 0.0194367
-0.045128 0.130499 0.00775207
-0.0752837 0.177497 -0.0464211
-0.0752837 0.179275 -0.0525302
-0.0741313 0.179866 -0.0506713
-0.0752837 0.17947 -0.0503651
-0.0752837 0.1788 -0.0487674
-0.0519143 0.151595 0.0143441
-0.0576584 0.157314 0.00775207
-0.0577964 0.157766 0.00679198
-0.0580247 0.157766 0.00631887
-0.0135997 0.184385 -0.0273019
-0.063599 0.154168 0.0309049
-0.0633717 0.154067 0.0311214
-0.0604723 0.153653 0.0311214
-0.0869683 0.110397 0.0187086
-0.0867258 0.110426 0.0194367
-0.0869683 0.113118 0.028031
-0.0846324 0.111027 0.026933
-0.0845743 0.111027 0.027305
-0.0849342 0.111027 0.0258646
-0.0693249 0.161388 -0.0506713
-0.0402296 0.125055 -0.00771623
-0.0370289 0.122712 -0.00877211
-0.0402296 0.125539 -0.00692048
-0.0373717 0.126024 -0.0039326
0.00650904 0.130301 0.0228947
-0.0685371 0.172114 -0.0389866
-0.0722566 0.173802 -0.0389866
-0.068718 0.154333 0.0311214
-0.063599 0.154738 0.0291096
-0.0662911 0.154175 0.0311214
-0.063599 0.155119 0.0277146
-0.0796785 0.146081 -0.00173258
-0.0775299 0.145663 -0.0039326
-0.0752837 0.152661 -0.0147351
-0.0750901 0.152791 -0.0156173
-0.0869683 0.0961909 0.00206379
-0.0440268 0.126711 0.0194367
-0.0436344 0.126412 0.0194367
-0.0168603 0.186082 -0.0236219
-0.0827726 0.153025 0.00775207
-0.0836944 0.152666 0.00775207
-0.0840025 0.152452 0.00775207
-0.0670194 0.170861 -0.0389866
-0.0655237 0.169451 -0.038059
-0.0654726 0.169604 -0.0389866
-0.0901642 0.114291 0.00775207
-0.0882017 0.111027 0.0131585
-0.0914615 0.146081 0.0174657
-0.0905194 0.146081 0.0140381
-0.0916802 0.148473 0.0194367
-0.0888565 0.0965339 0.00775207
-0.0877064 0.0993425 0.00545443
-0.0869683 0.102741 0.00603116
-0.0882044 0.0993425 0.00680652
-0.0883275 0.100148 0.00775207
-0.0519143 0.125583 -0.0065331
-0.0503018 0.128026 -0.0039326
-0.0485087 0.127537 -0.0039326
-0.0495715 0.122712 -0.0107565
-0.0168603 0.187224 -0.0207527
-0.0168603 0.18733 -0.0209229
-0.0168603 0.187332 -0.021108
-0.0168603 0.187035 -0.0217077
-0.0665404 0.169451 -0.0341219
-0.0752837 0.174832 -0.0411634
-0.0136653 0.0993425 0.0464585
-0.0168603 0.0965612 0.0508676
-0.0752837 0.179057 -0.0528346
-0.0752837 0.179209 -0.0528404
-0.0763449 0.179053 -0.0506713
-0.0869683 0.15291 0.0195549
-0.086872 0.15299 0.0194367
-0.048013 0.134397 0.0204888
-0.0496159 0.134397 0.0257227
-0.0235126 0.122712 0.0261312
-0.00272516 0.126231 0.0311214
-0.0443921 0.128481 0.0194367
-0.0196946 0.185962 -0.0156173
-0.0729029 0.173882 -0.0389866
-0.0848969 0.0918825 -0.0039326
-0.084861 0.0913959 -0.0039326
-0.0848889 0.0917023 -0.0039326
-0.0752837 0.0895282 -0.0144136
-0.0752837 0.0967151 -0.0133345
-0.0752837 0.0943709 -0.0136697
-0.0711592 0.096066 -0.0156173
-0.0884774 0.093007 0.00775207
-0.0887847 0.0993425 0.00908388
-0.0939859 0.122712 0.0252019
-0.0919318 0.128367 0.0311214
-0.0340032 0.122712 0.0257032
-0.0869683 0.151222 0.00991579
-0.0429203 0.122712 0.0253169
-0.0402296 0.125005 0.0224072
-0.0422963 0.126147 0.0194367
0.00235101 0.0993425 0.048897
-0.000170394 0.0993425 0.0499806
-0.0544795 0.153701 0.0194367
-0.0544265 0.153654 0.0194367
-0.0747698 0.173961 -0.0389866
-0.0752837 0.1746 -0.0407817
-0.0752837 0.175162 -0.0417179
0.0532477 0.0729852 0.00867073
0.0532477 0.0735037 0.0133104
0.0550902 0.0720663 0.00775207
-0.094519 0.122712 0.0221363
-0.00517563 0.130637 0.0191511
-0.00479074 0.130619 0.0194367
0.0298784 0.119234 0.00392335
0.0341304 0.111027 -0.00472267
0.0339512 0.111706 -0.0039326
0.0298784 0.117512 -0.00116801
-0.0752837 0.148494 -0.0154916
-0.0734695 0.146081 -0.0146168
-0.0752837 0.147702 -0.0121508
-0.0735282 0.146081 -0.0143158
-0.0726713 0.144862 -0.0156173
-0.0894186 0.0993425 0.0169706
-0.0885916 0.101361 0.0194367
-0.089481 0.0993425 0.0143463
-0.089136 0.0977094 0.0194367
-0.0943214 0.122712 0.0237893
-0.0424827 0.122712 0.0254381
-0.0402296 0.124079 0.0238838
-0.0777733 0.111345 -0.0039326
-0.0767971 0.111027 -0.00519301
-0.028545 0.122281 0.023007
-0.027932 0.122712 0.0223876
-0.0250115 0.124765 0.0194367
-0.0215828 0.18578 -0.0156173
-0.023201 0.184592 -0.0156173
-0.0662194 0.156261 0.0194367
-0.063599 0.156103 0.0162113
-0.0716181 0.156334 0.0194367
-0.0638301 0.156132 0.0194367
-0.063599 0.15612 0.0196737
-0.063599 0.156072 0.0130843
-0.0671698 0.169451 -0.0328296
-0.0695561 0.169451 -0.0276543
-0.0695385 0.169342 -0.0273019
-0.063599 0.156122 0.0224182
-0.063599 0.155774 0.0247223
-0.0734575 0.157725 -0.0039326
-0.0734294 0.157766 -0.00398738
-0.0752837 0.156221 -0.00431757
-0.0742256 0.157045 -0.0039326
-0.07362 0.157647 -0.0039326
-0.0736706 0.157766 -0.00421949
0.0532477 0.0735937 0.015186
0.0548293 0.0724899 0.0194367
0.0532477 0.0730719 0.0177468
0.0514833 0.0728934 0.0194367
0.052635 0.0725988 0.00775207
0.051649 0.0725932 0.00775207
0.0532477 0.0727409 0.0081329
0.0534471 0.0725137 0.00775207
0.04824 0.0721639 0.00775207
-0.00452661 0.126267 0.0311214
-0.00517563 0.127382 0.0292594
-0.000160904 0.126361 0.0311214
-0.0869683 0.0931451 0.00341886
-0.0891877 0.090101 0.0194367
-0.0895639 0.0928118 0.0194367
-0.0790345 0.114708 -0.0039326
-0.0807717 0.111027 -0.000952101
-0.028545 0.125862 0.01241
-0.0464015 0.132529 0.0194367
-0.0752837 0.171961 -0.0353718
-0.0766707 0.172958 -0.0389866
-0.0752837 0.172678 -0.0369913
-0.0752837 0.1722 -0.0361434
-0.0519143 0.152406 0.0127361
0.0378773 0.110217 0.00775207
0.0372199 0.111027 0.00661374
0.037243 0.111027 0.0148312
0.0373497 0.111027 0.00905855
0.0338191 0.115722 0.00775207
0.0342593 0.111027 -0.00433184
0.0343201 0.111137 -0.0039326
0.0259341 0.122712 0.0050055
0.0234636 0.124796 0.00775207
0.0241817 0.122712 0.000692248
0.023122 0.121184 -0.0039326
0.0231634 0.122712 -0.000650665
0.0181937 0.126864 0.00219689
0.0181937 0.125848 -0.000634532
0.0181937 0.12663 0.00106244
0.0224725 0.121649 -0.0039326
0.0218429 0.122712 -0.00264306
-0.0752837 0.148555 -0.0156981
-0.0753131 0.148566 -0.0156173
-0.0753595 0.148616 -0.0156173
-0.0735631 0.146081 -0.0157546
-0.0752837 0.148489 -0.0155308
-0.0746191 0.147559 -0.0156173
-0.0907298 0.116362 0.0428061
-0.0614886 0.155996 0.0194367
-0.0448245 0.129588 0.0194367
-0.0200534 0.186252 -0.0156173
-0.0209677 0.186147 -0.0156173
-0.0212837 0.186027 -0.0156173
-0.0239419 0.183726 -0.0156173
-0.0266681 0.181135 -0.0151071
-0.0691777 0.169123 -0.0273019
-0.0651387 0.166118 -0.0273019
-0.0752837 0.17087 -0.0326895
-0.0758241 0.169451 -0.029617
-0.0771826 0.169451 -0.0324945
-0.0779786 0.169451 -0.0344448
-0.0236281 0.125206 0.0194367
-0.0726531 0.156326 0.0194367
-0.0752837 0.156049 0.0138307
-0.0762128 0.15517 0.00775207
-0.0752837 0.155854 0.0120743
-0.0752837 0.156123 0.0144823
0.0579056 0.0701818 0.0194367
0.0551148 0.0723466 0.0194367
0.00650904 0.129091 0.0266272
0.00650904 0.129517 0.0255775
0.00248621 0.126299 0.0311214
0.00650904 0.128348 0.0278133
-0.0402296 0.127513 0.0156952
-0.0402296 0.128186 0.0141983
-0.0905674 0.134397 0.0109363
-0.090617 0.134397 0.0113399
-0.0903414 0.134397 0.00941721
-0.0900087 0.134544 0.00775207
-0.0911457 0.11613 0.00775207
-0.0752837 0.155425 -0.000458145
-0.0757006 0.155778 -0.0039326
-0.0752837 0.15597 -0.00317643
-0.0700301 0.169451 -0.0273702
-0.0699684 0.169419 -0.0273019
-0.0707209 0.169451 -0.0267908
-0.0724568 0.169968 -0.0273019
-0.0752837 0.168969 -0.0277169
-0.074836 0.169451 -0.0284467
0.0512792 0.0729125 0.0194367
-0.0137638 0.124231 0.0311214
-0.0575047 0.155289 0.0194367
0.0181937 0.120964 0.0328104
-0.0781583 0.154746 0.00775207
0.0181937 0.124337 0.0279814
0.0192995 0.122712 0.0302706
0.0197105 0.122108 0.0311214
0.0203833 0.121869 0.0311214
-0.028545 0.180787 -0.0125051
-0.0280989 0.181135 -0.0125208
-0.0268784 0.181135 -0.0144683
-0.057562 0.155302 0.0194367
0.0181937 0.124518 0.0276461
0.0210379 0.122712 0.0291273
0.0510988 0.0728935 0.0194367
-0.0406793 0.126427 0.0194367
-0.0402296 0.126241 0.0199585
-0.0752837 0.155098 0.00529244
-0.0577469 0.155348 0.0194367
-0.0828166 0.111027 0.000703909
0.00144775 0.126305 0.0311214
0.0532477 0.0713015 0.0224828
0.0532477 0.0725888 0.019833
0.0181937 0.127545 0.00564281
0.0135928 0.129866 0.00775207
-0.0873983 0.10347 0.00775207
-0.0869683 0.104019 0.00700141
-0.0880391 0.111027 0.01811
-0.0871475 0.110846 0.0194367
-0.087118 0.111027 0.0200046
-0.0869683 0.111945 0.0228797
-0.028545 0.18088 -0.011833
-0.0282383 0.181135 -0.0117317
-0.028545 0.179973 -0.0141342
-0.0285635 0.181135 -0.0102865
-0.028545 0.181149 -0.0102921
-0.028545 0.180759 -0.00802583
-0.0281177 0.181135 -0.00854806
-0.0752837 0.168874 -0.027483
-0.0745248 0.169114 -0.0273019
-0.0734595 0.169451 -0.0270477
-0.00549029 0.130549 0.0194367
-0.0519143 0.161184 0.00659641
-0.0560583 0.157766 0.008648
-0.0542486 0.159259 0.00775207
-0.0563451 0.157766 0.00848325
-0.0556453 0.15864 0.00775207
0.0298784 0.119908 0.00718648
0.0264797 0.122712 0.00726855
0.0260367 0.123084 0.00775207
0.0274399 0.121968 0.00775207
0.021235 0.126188 0.00775207
0.0181937 0.127823 0.00873716
0.018634 0.127533 0.00775207
0.0181937 0.127654 0.00675325
0.0168202 0.128383 0.00775207
-0.0752837 0.177769 -0.0528792
0.0532477 0.0710504 0.0228287
0.0503038 0.0726682 0.0194367
0.0472246 0.0716589 0.0194367
0.0459866 0.0736633 0.0194367
-0.0519143 0.153472 0.0118333
-0.0525591 0.157766 0.0097252
-0.0519143 0.159037 0.00868681
-0.0513339 0.16018 0.00775207
-0.0760665 0.155476 -0.0039326
0.0312262 0.118754 0.00775207
0.0298784 0.120038 0.010066
0.0309122 0.119071 0.00775207
0.0181937 0.127992 0.0114005
0.0267881 0.122712 0.013177
-0.0747936 0.149716 -0.0273019
-0.0748655 0.150685 -0.0273019
-0.0752837 0.150314 -0.0238238
-0.0752837 0.150003 -0.0235327
-0.0586028 0.157766 0.00431934
0.0181937 0.128037 0.0135325
-0.0869683 0.103169 0.0219361
-0.0869683 0.101797 0.0237476
-0.0884671 0.0993425 0.0214306
-0.0402296 0.173723 -0.0067937
-0.0781004 0.146081 0.0426817
-0.0752837 0.147906 0.0411201
-0.0783247 0.145936 0.0428061
0.0121965 0.130256 0.00775207
0.00650904 0.130171 0.000790798
-0.0671588 0.102598 -0.0156173
-0.0752837 0.10916 -0.00815925
-0.0752837 0.103611 -0.0104505
-0.068785 0.111027 -0.0111003
-0.0715337 0.111027 -0.0096413
-0.0708897 0.0344901 0.00775207
-0.0718748 0.0349875 0.00775207
-0.0669197 0.0358769 0.0311214
-0.0667306 0.0377694 0.0311214
-0.0651682 0.0409192 0.036591
-0.0656549 0.0409192 0.0341977
-0.063599 0.0380322 0.042232
-0.0630405 0.0379261 0.0428061
-0.0641409 0.0409192 0.0391929
-0.063599 0.038362 0.0421502
-0.0624036 0.0409192 0.042689
-0.0621438 0.041475 0.0428061
-0.0389536 0.0378092 0.0428061
-0.0370526 0.0409192 0.0447456
-0.0387268 0.0364628 0.0428061
-0.0723106 0.0373954 0.00775207
-0.068232 0.0409192 0.00980462
-0.0722889 0.0366758 0.00775207
-0.0657151 0.0409192 0.0132143
-0.0666016 0.0409192 0.0119179
-0.063599 0.0381647 0.024363
-0.0666076 0.0379697 0.0311214
-0.0667874 0.037396 0.0311214
-0.0649099 0.0409192 0.0376847
-0.0618615 0.0409192 0.0432207
-0.063599 0.0358142 0.0423225
-0.0631156 0.0360478 0.0428061
-0.0828458 0.0759732 0.0161393
-0.0852079 0.0798745 0.0194367
-0.0834133 0.077264 0.0194367
-0.0387048 0.0397888 0.0428061
-0.0374919 0.0409192 0.0441814
-0.0387368 0.0409192 0.0421197
-0.0400896 0.0361306 0.0428061
-0.0402296 0.0385594 0.0426603
-0.0405223 0.0383445 0.0428061
-0.0366253 0.0409192 0.0452997
-0.0355433 0.0409192 0.0464478
-0.0334798 0.0409192 0.0500914
-0.0334159 0.0409192 0.0501839
-0.0332454 0.0409192 0.0502832
-0.0291666 0.0409192 0.0526679
-0.028545 0.0412443 0.0530022
-0.0302922 0.0409192 0.0516741
-0.028545 0.0454889 0.0502004
-0.028545 0.0385918 0.0537524
-0.028545 0.0390239 0.0537425
-0.0261636 0.0409192 0.0539317
-0.028545 0.0396932 0.0535981
-0.0281213 0.0409192 0.05344
-0.028545 0.0368367 0.0535585
-0.0245796 0.0409192 0.0540866
-0.0575847 0.0993425 -0.0198271
-0.05942 0.0993425 -0.0189141
-0.063599 0.0359598 0.0181883
-0.0622547 0.0367497 0.0194367
-0.0655086 0.0409192 0.0133806
-0.063599 0.0360927 0.0180559
-0.063599 0.0374208 0.0171095
-0.0633253 0.0409192 0.0148994
-0.063599 0.0357786 0.0183858
-0.0631912 0.0354016 0.0194367
-0.063599 0.0357851 0.018115
-0.0595978 0.0396792 0.0194367
-0.0615186 0.0378683 0.0194367
-0.063599 0.0355573 0.0222683
-0.0595639 0.0397081 0.0194367
-0.063599 0.0390142 0.0258611
-0.063599 0.0393719 0.0258339
-0.0653523 0.0401042 0.0311214
-0.0652373 0.0404968 0.0311214
-0.0651555 0.0409192 0.0326813
-0.0649562 0.0409192 0.0323101
-0.063599 0.0439803 0.0322977
-0.063599 0.0421275 0.0394013
-0.0621289 0.041516 0.0428061
-0.063599 0.0428378 0.0386359
-0.063599 0.0436391 0.0376002
-0.0620459 0.0416599 0.0428061
-0.0377952 0.0424768 0.0428061
-0.028545 0.0948193 -0.0245188
-0.032603 0.0876579 -0.0253071
-0.0495102 0.0993425 -0.0219381
-0.0519143 0.0965945 -0.0221202
-0.0519143 0.0974147 -0.022116
-0.0539628 0.0993425 -0.0217326
0.0532477 0.0707232 0.00440952
-0.0703975 0.0409192 0.00490998
-0.0702085 0.0409192 0.0044111
-0.0703033 0.0409192 0.00392519
-0.0715679 0.0393872 0.00775207
-0.0708035 0.0409192 0.00660153
-0.0712376 0.0399486 0.00775207
-0.0707044 0.0409192 0.00743515
-0.0693036 0.0409192 0.00897172
-0.0594454 0.0409192 0.0179992
-0.0595608 0.0397326 0.0194367
-0.0580056 0.0409192 0.0193749
-0.0453434 0.169451 -0.000761208
-0.0414683 0.172589 -0.0039326
-0.0433152 0.171352 -0.0039326
-0.028545 0.0461623 0.049862
-0.0832662 0.0953716 0.0311214
-0.0807164 0.0993425 0.0328558
-0.0808334 0.103587 0.0311214
-0.0829336 0.0974566 0.0311214
-0.0793331 0.0993425 0.0342475
-0.085232 0.134397 0.0472225
-0.0838649 0.134397 0.0484505
-0.0866837 0.134397 0.0455562
-0.0703308 0.0409192 0.0026815
-0.063599 0.0417214 0.0141585
-0.0626581 0.0409192 0.0155884
-0.0607788 0.0409192 0.0166355
-0.0752837 0.0968076 0.0386772
-0.0766073 0.0993425 0.0365254
-0.028545 0.0463732 0.0497034
-0.028545 0.0476625 0.0481369
-0.0722496 0.0993425 0.03955
-0.0752837 0.0954811 0.0389473
-0.0689415 0.0426591 0.00775207
-0.0371315 0.0436084 0.0428061
-0.0415333 0.0876579 -0.0216477
-0.0402296 0.0858815 -0.0216542
-0.0403018 0.0876579 -0.0220897
-0.0402296 0.0877079 -0.0221391
-0.0402296 0.0867891 -0.0216748
-0.0423086 0.0876579 -0.021691
-0.0672488 0.0442246 0.00775207
-0.0661153 0.0448766 0.00775207
-0.063599 0.0420065 0.013839
-0.063599 0.0439363 0.0111355
-0.0198806 0.0759732 0.0544553
-0.0198338 0.0759883 0.0544908
-0.0190381 0.0739724 0.0544908
-0.0187459 0.0759732 0.0552176
-0.0193795 0.0750351 0.0544908
-0.0188903 0.0759732 0.0551054
-0.0823665 0.0835164 0.0311214
-0.0777282 0.0876579 0.0377351
-0.0799225 0.0876579 0.0349658
-0.0151925 0.0993425 0.04518
-0.0168603 0.0993127 0.0442904
-0.0167331 0.0993425 0.0443077
-0.0869683 0.139857 0.040793
-0.0869683 0.138509 0.0421321
-0.0863826 0.138697 0.0428061
-0.0874667 0.136662 0.0428061
-0.0869683 0.135191 0.0445852
-0.0889035 0.134397 0.0413649
-0.0766312 0.161532 -0.0156173
-0.063599 0.0456011 0.00881732
-0.0818864 0.134397 0.0499167
-0.0352269 0.0461732 0.0428061
-0.028545 0.0479169 0.0476878
-0.030431 0.0497313 0.0428061
-0.028545 0.0486852 0.0456848
-0.0869683 0.0912513 0.0260528
-0.0832537 0.0936313 0.0311214
-0.063599 0.0458009 0.00846812
-0.0641664 0.0457798 0.00775207
-0.063599 0.0458841 0.00819559
-0.0630558 0.0461819 0.00775207
-0.0585083 0.0477764 0.00775207
-0.0597585 0.0471682 0.00775207
-0.0519143 0.0494696 0.0137891
-0.0168603 0.0983773 0.0459517
-0.0168603 0.0973826 0.048668
-0.0168603 0.0986142 0.0455723
-0.0341569 0.0471044 0.0428061
-0.0309717 0.0494061 0.0428061
-0.0752837 0.160072 -0.010526
-0.077448 0.157766 -0.0140111
-0.0519143 0.162733 0.00462373
-0.0519143 0.163481 0.00298632
-0.0752837 0.0767076 0.034518
-0.0749 0.0759732 0.0343772
-0.0732561 0.0759732 0.0356936
-0.0752837 0.0750956 0.0331173
-0.0762277 0.0759732 0.0326559
-0.0752837 0.0731192 0.0310508
-0.0752433 0.0731304 0.0311214
-0.0719667 0.0701761 0.0311214
-0.0869683 0.143011 0.0380099
-0.0849364 0.146081 0.0370601
-0.0851687 0.140493 0.0428061
-0.0838096 0.141751 0.0428061
-0.0785148 0.145843 0.0428061
-0.0706738 0.0993425 0.0404218
-0.0782879 0.164398 -0.0273019
-0.0519143 0.0465358 0.0162954
-0.0519143 0.0464313 0.0164267
-0.0519143 0.0464687 0.0163605
-0.0917519 0.124415 0.0428061
-0.0869683 0.144249 0.0365233
-0.0860741 0.146081 0.0355275
-0.0877848 0.146081 0.0325598
-0.0763402 0.157766 -0.00895892
-0.0752837 0.158882 -0.00897358
-0.0764477 0.157766 -0.00950747
-0.0773089 0.157766 -0.0133508
-0.0765134 0.157766 -0.0102762
-0.0907149 0.146081 0.026311
-0.0878586 0.147024 0.0311214
-0.0869683 0.149177 0.0298579
-0.0860711 0.149423 0.0311214
-0.0807754 0.0801164 0.0311214
-0.0796414 0.0759732 0.0272821
-0.0789741 0.0778333 0.0311214
-0.0869683 0.0908487 0.0259871
-0.0869683 0.0919248 0.0260151
-0.0869683 0.0904473 0.0257861
-0.0858254 0.0876579 0.0260476
-0.0202729 0.090361 0.0544908
-0.0226347 0.0871859 0.0544908
-0.0226156 0.0876579 0.0542247
-0.0576083 0.0486319 0.00775207
-0.0563423 0.0526039 0.00755858
-0.0519143 0.04975 0.0135224
-0.0519143 0.0502311 0.0133615
-0.0502159 0.0526039 0.0152981
-0.0519143 0.0515482 0.0133404
-0.0522698 0.0526039 0.0129076
-0.0244068 0.0824242 0.0544908
-0.0519143 0.0507979 0.0318958
-0.0519143 0.0509652 0.0317723
-0.0523999 0.0504434 0.0311214
-0.0521099 0.0508092 0.0311214
-0.0519794 0.0526039 0.0302953
-0.0519143 0.0539122 0.0293443
-0.052036 0.0514674 0.0311214
-0.0483712 0.0526039 0.0365455
-0.0519143 0.0493142 0.0353923
-0.0869683 0.0882518 0.0243513
-0.0865043 0.0876579 0.0248094
-0.0869683 0.0867752 0.0230661
-0.0873573 0.0876579 0.0230171
-0.0889445 0.0887206 0.0194367
-0.030012 0.0500453 0.0428061
-0.028545 0.0499942 0.0441528
-0.028545 0.0866127 0.0458617
-0.0276795 0.0876579 0.047144
-0.026897 0.0876579 0.0486346
-0.0831769 0.122712 0.0492616
-0.0774833 0.157766 -0.0141257
-0.0767751 0.161311 -0.0156173
-0.0559453 0.0526039 0.00818158
-0.0558918 0.0535393 0.00775207
-0.0869683 0.129204 0.0475204
-0.0899628 0.122712 0.0457923
-0.0869683 0.126621 0.0472594
-0.0869683 0.133189 0.0455998
-0.0867273 0.134397 0.0454881
-0.0895832 0.129357 0.0428061
-0.028545 0.0511397 0.0414369
-0.0519143 0.161733 0.00588428
-0.028545 0.0843918 0.0466396
-0.0752837 0.0814099 0.0373864
-0.0822162 0.0831142 0.0311214
-0.0775498 0.0876579 0.0378793
-0.054192 0.0526039 0.0106587
-0.0549742 0.0526039 0.00940926
-0.05588 0.0535673 0.00775207
-0.0407764 0.169451 -0.0104145
-0.0402296 0.167292 -0.0115052
-0.0402296 0.168526 -0.0113179
-0.038908 0.169451 -0.0119703
-0.0499012 0.0526039 0.0340042
-0.0506941 0.0526039 0.0329818
-0.0508927 0.0526039 0.0327038
-0.0510294 0.0526039 0.0321457
-0.0512573 0.0533084 0.0311214
-0.028545 0.0523643 0.0374685
-0.028545 0.0523758 0.0374599
-0.0283965 0.0526039 0.0374164
-0.0262343 0.0526039 0.0392424
-0.0853854 0.0993425 0.0276143
-0.0252085 0.0876579 0.051691
-0.028545 0.082177 0.0464881
-0.0456511 0.169451 -0.00213814
-0.0446497 0.170425 -0.0039326
-0.0519143 0.0544744 0.0132876
-0.0499003 0.0526039 0.0160078
-0.0499568 0.0526039 0.0163357
-0.0508101 0.0538167 0.0194367
-0.0752837 0.15729 -0.00613457
-0.0750613 0.157766 -0.00656691
-0.0763711 0.155121 -0.0039326
-0.076868 0.153489 -0.0039326
-0.0922789 0.120157 0.0428061
-0.0244743 0.0526039 0.0410229
-0.0402296 0.0899259 -0.0231806
-0.0519143 0.0559486 0.0187507
-0.0519143 0.056252 0.0207013
-0.0511918 0.055047 0.0194367
-0.0509511 0.0543225 0.0194367
-0.0238303 0.0526039 0.0419569
-0.0232852 0.0531957 0.0428061
-0.0240576 0.0526039 0.0416129
-0.0233925 0.0572175 0.0428061
-0.0519143 0.0553689 0.0141847
-0.0558778 0.0535834 0.00775207
-0.0519143 0.056072 0.0182516
-0.0519143 0.0560725 0.0166478
-0.0542013 0.0573684 0.0194367
-0.0519143 0.0557529 0.0144859
-0.0520813 0.0562883 0.0194367
-0.0534363 0.0569346 0.0194367
-0.0524627 0.0565643 0.0194367
-0.0519143 0.0558965 0.0211648
-0.0921375 0.119819 0.0428061
-0.0922901 0.120343 0.0428061
-0.0921881 0.121475 0.0428061
-0.0919663 0.122712 0.0429669
-0.0894512 0.146081 0.0287766
-0.0878736 0.146987 0.0311214
-0.0889169 0.144778 0.0311214
-0.0168603 0.0599936 0.0516797
-0.0752837 0.0846344 0.0384746
-0.0773161 0.0876579 0.0380459
-0.0712466 0.0759732 0.0372064
-0.0546648 0.0575475 0.0194367
-0.0555885 0.0578583 0.0194367
-0.0519143 0.0590668 0.0290008
-0.0511546 0.058751 0.0311214
-0.0519143 0.0553842 0.0283119
-0.0805169 0.108986 0.0311214
-0.0867115 0.134397 0.0455189
-0.0736075 0.148582 -0.0273019
-0.0720163 0.147817 -0.0273019
-0.0835897 0.0876579 0.0298777
-0.0828034 0.0901449 0.0311214
-0.0844256 0.0876579 0.0280782
-0.0779045 0.172207 -0.0389866
-0.0859071 0.0993425 0.0268528
-0.0876441 0.0993425 0.0236178
-0.0869683 0.101241 0.0241246
-0.082429 0.0851326 0.0311214
-0.0819349 0.0876579 0.031995
-0.0519143 0.0600299 0.030146
-0.0513181 0.0592028 0.0311214
-0.0511038 0.0579729 0.0311214
-0.0453323 0.0642885 0.0394385
-0.0235045 0.0598566 0.0428061
-0.0259734 0.0642885 0.0401274
-0.0239098 0.0636904 0.0428061
-0.0249838 0.0642885 0.0414526
-0.0226477 0.0642885 0.0452934
-0.063599 0.0608984 0.0212368
-0.076443 0.178806 -0.0506713
-0.0884316 0.113646 0.0428061
-0.0869683 0.114839 0.0456057
-0.0894978 0.114651 0.0428061
-0.0869683 0.14738 0.0321699
-0.0786788 0.171187 -0.0389866
-0.0785496 0.169451 -0.0354893
-0.0849424 0.0993425 0.0281908
-0.0801298 0.105446 0.0311214
-0.0801049 0.106313 0.0311214
-0.0895151 0.122712 0.0461563
-0.0869683 0.123996 0.047909
-0.0869683 0.1207 0.0481559
-0.0903104 0.122712 0.0453804
-0.0752837 0.0898138 0.039595
-0.0752837 0.0873144 0.039217
-0.0764893 0.0876579 0.038561
-0.0479168 0.0642885 0.0369027
-0.0483678 0.0642885 0.0366488
-0.0487309 0.0642885 0.0364291
-0.08009 0.1161 -0.0039326
-0.0860164 0.122712 0.0486963
-0.020008 0.0906004 0.0544908
-0.0869683 0.0977003 0.0255267
-0.0296864 0.0790243 0.0428061
-0.028545 0.0784208 0.044556
-0.0297549 0.0792733 0.0428061
-0.0752837 0.114997 -0.00582577
0.00650904 0.108309 -0.0201818
0.00511799 0.111027 -0.0201928
0.002888 0.111027 -0.0201281
-0.0813701 0.119 -0.0039326
-0.0806125 0.117123 -0.0039326
-0.025147 0.0876579 0.0517981
-0.0232592 0.0861996 0.0544908
-0.0250412 0.0876579 0.0519189
-0.026698 0.0759732 0.0460136
-0.0464563 0.148921 -0.0039326
-0.0402296 0.15235 -0.00710768
-0.0666261 0.0993425 -0.0161408
-0.0672053 0.102538 -0.0156173
-0.0670596 0.102697 -0.0156173
-0.0519143 0.090098 -0.0220505
-0.0519143 0.0874807 -0.0217869
-0.0520887 0.0876579 -0.0218326
-0.0547736 0.0876579 -0.0218622
-0.0725324 0.149925 -0.0389866
-0.072962 0.151056 -0.0389866
-0.0248592 0.0659553 0.0428061
-0.0201194 0.0642885 0.0493486
-0.0192808 0.0642885 0.0506648
-0.0243786 0.0827351 0.0544908
-0.0508586 0.0876579 -0.0216359
-0.0869683 0.116863 0.0473239
-0.0402296 0.160227 -0.0116446
-0.0402296 0.163027 -0.0117834
-0.0892039 0.13085 0.0428061
-0.0869683 0.134085 0.0452125
-0.0867531 0.134397 0.0454442
-0.028545 0.0366653 0.0535226
-0.0869683 0.117959 0.0476974
-0.0242327 0.0759732 0.051049
-0.0259041 0.0759732 0.0475277
-0.0649595 0.134397 -0.00808443
-0.0648283 0.134397 -0.00808096
-0.063599 0.134424 -0.00772726
-0.0628355 0.134397 -0.0075127
-0.063599 0.135327 -0.00762266
-0.063599 0.13856 -0.00728129
-0.0215901 0.0876579 0.0550464
-0.0869683 0.148061 0.0313297
-0.0881518 0.146081 0.0314265
-0.0586405 0.0876579 -0.020921
-0.0575489 0.0876579 -0.0211836
-0.0581424 0.0876579 -0.021137
-0.0233398 0.0759732 0.0523953
-0.0752837 0.117519 -0.00706644
-0.0652553 0.0876579 -0.0187645
-0.0712894 0.0876579 0.0416142
-0.0402296 0.103231 -0.0207056
-0.0402296 0.10442 -0.0204198
-0.0390581 0.111027 -0.0182795
-0.0402296 0.108488 -0.0195502
-0.0402296 0.108002 -0.0198235
-0.0912444 0.125718 0.0428061
-0.0895786 0.134397 0.0397429
-0.0869683 0.150019 0.028377
-0.0859365 0.149568 0.0311214
-0.028545 0.0807199 0.045692
-0.0418077 0.0409192 -0.0234799
-0.0930441 0.13137 0.0194367
-0.0917287 0.129407 0.0311214
-0.0910118 0.134397 0.0204866
-0.063599 0.0358955 0.0229016
-0.063599 0.0364898 0.0240952
-0.0715721 0.169451 -0.0489641
-0.0719706 0.169451 -0.0483067
-0.0712894 0.169451 -0.049307
-0.0710303 0.170733 -0.0506713
-0.0698414 0.169451 -0.0519743
-0.070488 0.169289 -0.0506713
-0.0774301 0.177313 -0.0506713
-0.0440242 0.0409192 -0.0210037
-0.0420473 0.0409192 -0.0233235
-0.0433938 0.0409192 -0.0222773
-0.0443334 0.0409192 -0.0202551
-0.0445379 0.0409192 -0.0186447
-0.047001 0.0378324 -0.0156173
-0.046769 0.0409192 -0.0123718
-0.0471749 0.0366651 -0.0156173
-0.0869683 0.128288 -0.000582059
-0.0840302 0.127823 -0.0039326
-0.0587283 0.0409192 0.0206621
-0.0576353 0.0412352 0.0194367
-0.0589721 0.0409192 0.0211606
-0.059083 0.0409192 0.0212653
-0.0592645 0.0409192 0.0214237
-0.063599 0.0404147 0.0257859
-0.0620727 0.0409192 0.0243543
-0.061247 0.0409192 0.0236035
-0.0638034 0.0409192 0.0264138
-0.063599 0.0415962 0.0266867
-0.0650885 0.0409192 0.0291424
-0.063599 0.0419341 0.0270395
-0.0651843 0.0409192 0.0294158
-0.0639569 0.0433827 0.0311214
-0.063599 0.044101 0.0316187
-0.0752837 0.164872 -0.0374445
-0.0785116 0.167933 -0.0389866
-0.0752837 0.162797 -0.0338467
-0.0752837 0.16684 -0.0401497
-0.0762797 0.166666 -0.0389866
-0.0690416 0.169451 -0.0535145
-0.0693409 0.162089 -0.0506713
-0.0672093 0.169451 -0.0568087
-0.0771829 0.176387 -0.0506713
-0.0752837 0.17435 -0.0497088
-0.0752837 0.175433 -0.0507566
-0.0751646 0.175279 -0.0506713
-0.0402296 0.036431 -0.0284267
-0.0415599 0.0374902 -0.0273019
-0.0402296 0.0406721 -0.0264883
-0.0400467 0.0409192 -0.0264635
-0.0402296 0.0388254 -0.0276586
-0.0410105 0.0385008 -0.0273019
-0.0427273 0.0358196 -0.0273019
-0.0420097 0.0362368 -0.0273019
-0.0447027 0.0409192 -0.0176139
-0.0464422 0.039249 -0.0156173
-0.0466991 0.0409192 -0.012602
-0.0700278 0.0409192 0.000425292
-0.0700807 0.0409192 0.000486717
-0.0698306 0.0409192 0.000214741
-0.0631905 0.0444168 0.0311214
-0.0786202 0.163226 -0.0273019
-0.0783729 0.162496 -0.0273019
-0.0869683 0.131098 0.00119676
-0.0417955 0.0409192 -0.0237678
-0.0402725 0.0409192 -0.0262127
-0.0402296 0.0409545 -0.0262277
-0.0427375 0.035795 -0.0273019
-0.0402296 0.0456844 -0.0210041
-0.0449291 0.0419256 -0.0156173
-0.0438241 0.0436368 -0.0156173
-0.0467742 0.0409192 -0.012264
-0.0475905 0.0409192 -0.0117585
-0.063599 0.0444805 -0.00173619
-0.063599 0.0451871 2.73704e-05
-0.0661902 0.0420625 -0.0039326
-0.074591 0.152022 -0.0273019
-0.0752837 0.152411 -0.0199765
-0.0573783 0.0413998 0.0194367
-0.063599 0.0445179 0.0327393
-0.063599 0.0443033 0.0358546
-0.0459339 0.169451 -0.00347093
-0.0452355 0.170012 -0.0039326
-0.0470667 0.168274 -0.0039326
-0.049017 0.165885 -0.0039326
-0.063599 0.0460575 0.00216578
-0.0930423 0.131373 0.0194367
-0.0911327 0.134397 0.0196849
-0.0930442 0.13137 0.0194367
-0.0543301 0.0435937 0.0194367
-0.0519143 0.0456386 0.0181623
-0.0532926 0.044615 0.0194367
-0.0624641 0.0450237 0.0311214
-0.0910612 0.134397 0.0157889
-0.0910985 0.134397 0.0192523
-0.0909808 0.134604 0.0194367
-0.0746621 0.165574 -0.0389866
-0.0402296 0.0430041 -0.0233914
-0.0402296 0.0413767 -0.0255844
-0.0402296 0.0424295 -0.0240741
-0.063599 0.0941493 -0.0186804
-0.063599 0.092845 -0.0187097
-0.063599 0.0952624 -0.0184142
-0.0650458 0.0876579 -0.0188973
-0.0597039 0.0464558 0.0311214
-0.0752837 0.159652 -0.0279524
-0.0755616 0.159516 -0.0273019
-0.0752837 0.156318 -0.0218929
-0.0767996 0.157766 -0.0223242
-0.0774421 0.157766 -0.0214709
-0.0402296 0.0446576 -0.0226167
-0.0402296 0.0455876 -0.0213282
-0.0421973 0.0456408 -0.0156173
-0.05708 0.0470145 -0.0039326
-0.0566633 0.0473103 -0.0039326
-0.0599877 0.0448981 -0.0039326
-0.0645616 0.042861 -0.0039326
-0.063599 0.0434168 -0.00377202
-0.0588819 0.0454724 -0.0039326
-0.063599 0.046429 0.00382934
-0.063599 0.0465007 0.00549208
-0.063599 0.046564 0.00452951
-0.0519143 0.0458317 0.0190781
-0.052046 0.0457839 0.0194367
-0.0573903 0.0476079 0.0311214
-0.0560632 0.0479987 0.0311214
-0.0519143 0.163859 -0.000673597
-0.0519143 0.163683 -0.00141324
-0.0490331 0.165867 -0.0039326
-0.0402296 0.0460332 -0.0200363
-0.0413207 0.0465561 -0.0156173
-0.0402296 0.0467169 -0.0166044
-0.0402296 0.098015 -0.0219244
-0.0381321 0.0993425 -0.0220209
-0.0407554 0.0993425 -0.0216748
0.0177726 0.112707 -0.0156173
0.0181937 0.11246 -0.0155543
0.0206394 0.111027 -0.0151887
0.017392 0.113031 -0.0156173
0.0181937 0.113245 -0.015111
0.0173254 0.113099 -0.0156173
0.0181937 0.114787 -0.0143571
0.0172884 0.111027 -0.0163568
-0.0554563 0.0497856 -0.0039326
-0.077521 0.151971 -0.0039326
-0.0519143 0.0464527 0.0201223
-0.0511177 0.047625 0.0194367
-0.0519143 0.0501405 0.0227882
-0.0506829 0.0487822 0.0194367
-0.0506655 0.0497141 0.0194367
-0.0511256 0.0526039 0.0208074
-0.0752837 0.173565 -0.0487952
-0.0727954 0.173347 -0.0506713
-0.0719311 0.149473 -0.0389866
-0.0915206 0.114061 0.0194367
-0.0869683 0.112003 0.0230422
-0.0915234 0.145085 0.0194367
-0.0914976 0.146081 0.0178131
-0.0916794 0.148327 0.0194367
-0.0537271 0.049094 0.0311214
-0.0725827 0.157766 -0.0361276
-0.07354 0.16393 -0.0389866
-0.0732903 0.163633 -0.0389866
-0.028545 0.0486744 -0.0241505
-0.0342602 0.0491915 -0.0156173
-0.05539 0.0499274 -0.0039326
-0.0571101 0.0526039 0.000171321
-0.0572937 0.0526039 0.00270159
-0.057106 0.0526039 0.00334864
-0.0572942 0.0526039 0.00248388
-0.0519143 0.0509638 0.0228292
-0.0515993 0.0526039 0.0220707
-0.0520953 0.0526039 0.0241354
-0.0522209 0.0526039 0.0274855
-0.0519143 0.0547237 0.0282843
-0.0523581 0.0526039 0.0264786
-0.0787899 0.142849 -0.0039326
-0.0752837 0.141835 -0.00627219
-0.0796593 0.140677 -0.0039326
-0.0797911 0.140331 -0.0039326
-0.0519143 0.163968 0.000946713
-0.0490262 0.165874 -0.0039326
-0.0221251 0.122712 -0.00679874
-0.028545 0.12132 -0.00804499
-0.0242801 0.122712 -0.00548753
-0.0234878 0.123553 -0.0039326
-0.0323441 0.0500154 -0.0156173
-0.0312566 0.050641 -0.0156173
-0.0366879 0.0483583 -0.0156173
0.0340697 0.111027 -0.00483859
0.0326906 0.113149 -0.0039326
0.033841 0.111027 -0.00524818
-0.0549776 0.0526039 -0.00453346
-0.0553627 0.0501366 -0.0039326
-0.0560827 0.0526039 -0.0018663
-0.0532641 0.0526039 -0.00614777
-0.0752837 0.146977 -0.0104353
-0.0747901 0.146081 -0.0100041
-0.0844323 0.134397 -0.000562748
-0.0797886 0.13847 -0.0039326
-0.0801835 0.135568 -0.0039326
-0.0330029 0.111027 -0.0180222
-0.028545 0.108797 -0.0198185
-0.028545 0.110557 -0.0181347
-0.0276581 0.111027 -0.017954
-0.028545 0.109859 -0.0189378
-0.028545 0.0496682 -0.0233059
-0.0259358 0.0526039 -0.0270302
-0.0258173 0.0532558 -0.0273019
-0.0276365 0.0526039 -0.0247133
-0.0234548 0.0481708 -0.0273019
-0.0293464 0.0526039 -0.0218214
-0.028545 0.0499335 -0.0233352
-0.0277585 0.0526039 -0.0245678
-0.028545 0.0495774 -0.0233352
-0.029696 0.0526039 -0.0206682
-0.0726256 0.152386 -0.0389866
-0.0519143 0.0553082 0.0278839
-0.0307846 0.0520649 -0.0156173
-0.03021 0.0526039 -0.0175035
-0.0302171 0.0526039 -0.0174622
-0.0302164 0.0526039 -0.0174706
-0.0313184 0.0526039 -0.0138949
-0.0307982 0.0556171 -0.0156173
-0.0316053 0.0526039 -0.0131477
-0.0323299 0.0526039 -0.0111611
-0.0318296 0.0526039 -0.0127215
-0.0561608 0.0562494 0.00775207
-0.0558912 0.0536358 0.00775207
-0.0519143 0.0553457 0.0243064
-0.0729558 0.157766 -0.0343074
-0.0718794 0.156113 -0.0389866
-0.0752837 0.171776 -0.0466595
-0.028545 0.0533163 -0.0231735
-0.055071 0.0554233 -0.0039326
-0.055083 0.0557992 -0.0039326
-0.0563886 0.0600467 -0.0039326
-0.0554947 0.0568518 -0.0039326
-0.0569615 0.0570247 0.00775207
-0.0909889 0.13144 0.00775207
-0.0905297 0.133229 0.00775207
-0.0899174 0.134397 0.0068424
-0.0259274 0.0541443 -0.0273019
-0.0237585 0.0526039 -0.0283016
-0.0249487 0.0526039 -0.0276665
-0.026949 0.0569358 -0.0273019
-0.028545 0.0563425 -0.0234824
-0.030804 0.0557408 -0.0156173
-0.0580955 0.0581192 0.00775207
-0.0604194 0.0587243 0.00775207
-0.0895421 0.135355 0.00775207
-0.0790884 0.16856 -0.0389866
-0.0790114 0.169451 -0.0405558
-0.078604 0.169451 -0.0412103
-0.0752837 0.167206 -0.0407265
-0.0196013 0.181135 -0.0232675
-0.0168603 0.179057 -0.0256097
-0.0313736 0.0577472 -0.0156173
-0.0566284 0.0609786 -0.0039326
-0.0567291 0.0610817 -0.0039326
-0.0572206 0.0612002 -0.0039326
-0.0907697 0.134969 0.0194367
-0.0793387 0.169451 -0.0397775
-0.0793553 0.168968 -0.0389866
-0.0792244 0.169451 -0.0387644
-0.0791815 0.16976 -0.0389866
-0.0909377 0.131053 0.0311214
-0.0710313 0.157766 -0.0438387
-0.0752837 0.171287 -0.0460771
-0.0752837 0.170301 -0.0447468
-0.0429023 0.169451 -0.00844215
-0.0443826 0.169451 -0.00667033
-0.0237125 0.181135 -0.0188787
-0.0269965 0.180414 -0.0156173
-0.028545 0.178081 -0.0161389
-0.0293606 0.177638 -0.0156173
-0.028545 0.0576695 -0.0237721
-0.0269698 0.0571557 -0.0273019
-0.028545 0.0608195 -0.0266723
-0.0284863 0.0613415 -0.0273019
-0.0318305 0.0595328 -0.0156173
-0.0896626 0.134397 0.0296348
0.00650904 0.104918 -0.0211533
0.00650904 0.104962 -0.0211334
-0.0737652 0.169451 -0.0450747
-0.0266392 0.180934 -0.0156173
-0.0263858 0.181135 -0.0157516
-0.032137 0.0606075 -0.0156173
-0.0402296 0.0349413 -0.0287782
-0.00517563 0.111861 -0.0205884
-0.00517563 0.110112 -0.0219517
-0.00455112 0.111027 -0.0212234
-0.0687096 0.0642885 -0.00146509
-0.063599 0.0618406 -0.00243282
-0.063599 0.0615187 -0.000514415
-0.063599 0.166788 -0.0605035
-0.0621218 0.169451 -0.0615026
-0.063599 0.165614 -0.0602027
-0.0775138 0.157766 -0.0142466
-0.0775282 0.158849 -0.0156173
-0.0456575 0.169451 -0.00466357
-0.0224576 0.169451 -0.0194372
-0.0197841 0.169451 -0.0201874
-0.0168603 0.168653 -0.0211137
-0.0168603 0.166816 -0.0196315
-0.068821 0.157766 -0.053188
-0.0693929 0.160802 -0.0506713
-0.0670465 0.157766 -0.0546071
-0.068256 0.157766 -0.0539434
-0.0273187 0.0642885 -0.0304514
-0.0251968 0.0642885 -0.032659
-0.028545 0.0622063 -0.0277583
-0.0286833 0.0622886 -0.0273019
-0.0298198 0.0642885 -0.0264409
-0.0298892 0.0648292 -0.0273019
-0.030246 0.0642885 -0.0244139
-0.0304467 0.0642885 -0.023121
-0.0727705 0.0893195 -0.0156173
-0.0402296 0.171769 -0.00974588
-0.0453725 0.169451 -0.00549241
-0.089848 0.134397 0.037432
-0.0899691 0.134397 0.036701
-0.028545 0.122064 -0.00683076
-0.0262876 0.122712 -0.00566089
-0.0245709 0.123605 -0.0039326
-0.0276087 0.122712 -0.00496063
-0.028545 0.124 -0.000660904
-0.0278326 0.12302 -0.0039326
-0.0270877 0.122712 -0.00512641
-0.0269617 0.123109 -0.0039326
-0.0328779 0.0627163 -0.0156173
-0.0330216 0.0634307 -0.0156173
-0.0327811 0.0642885 -0.0170118
-0.0339898 0.0642885 -0.0147135
-0.0185167 0.0353042 -0.0273019
-0.0182658 0.0355736 -0.0273019
-0.0168603 0.0363791 -0.0270073
-0.0175804 0.0363634 -0.0273019
-0.0168603 0.0369054 -0.0271978
-0.0204764 0.0409192 -0.0286684
-0.0203012 0.034502 -0.0273019
-0.0196688 0.0345638 -0.0273019
-0.0686213 0.0642885 -0.0015929
-0.0691962 0.0668966 -0.0039326
-0.0688238 0.0642885 -0.0012168
-0.0612387 0.0876579 -0.0192533
-0.064403 0.0876579 -0.0189618
-0.063599 0.0880661 -0.0190164
-0.0740464 0.15361 -0.0273019
-0.0752837 0.151384 -0.0243967
-0.0749149 0.151409 -0.0273019
-0.0402296 0.123226 -0.0102389
-0.0402296 0.116958 -0.0144665
-0.038943 0.122712 -0.0106077
-0.0402296 0.121946 -0.0114801
-0.0389892 0.122712 -0.0106226
-0.0389137 0.122712 -0.0105999
-0.0388757 0.122712 -0.0105728
-0.0583157 0.157766 0.00312094
-0.028322 0.0642885 -0.0291404
-0.028545 0.0623995 -0.0281798
-0.0295306 0.0642885 -0.0277705
-0.0310608 0.0642885 -0.0216104
-0.0323816 0.0642885 -0.0183602
-0.0319065 0.0642885 -0.0195805
0.028481 0.0993425 -0.0171263
0.0298784 0.0983496 -0.0162905
0.0310039 0.0975499 -0.0156173
0.0298784 0.0955374 -0.0177523
0.0320975 0.0955143 -0.0156173
0.0342526 0.0993425 -0.0130879
0.0353417 0.0915275 -0.0156173
0.033101 0.0942427 -0.0156173
-0.0696772 0.0642885 0.000980957
-0.0708586 0.0642885 0.00261541
-0.0752837 0.0674391 0.00414707
-0.0357308 0.0876579 -0.0242235
-0.0331522 0.0876579 -0.0251476
-0.0519143 0.162564 -0.00259746
-0.0490431 0.165851 -0.0039326
-0.0519143 0.161903 -0.0029818
-0.0507555 0.162522 -0.0039326
-0.0542561 0.157766 -0.00208966
-0.0869683 0.13358 0.00175663
-0.0846672 0.134397 -0.000356658
-0.0845675 0.134397 -0.000439063
-0.0836154 0.128699 -0.0039326
-0.0837992 0.134397 -0.00113259
-0.080283 0.135337 -0.0039326
-0.028545 0.0666696 -0.0297801
-0.028545 0.0673745 -0.0300105
-0.028545 0.0678819 -0.030484
-0.0300288 0.0651306 -0.0273019
-0.0344321 0.0658857 -0.0156173
-0.0456116 0.0993425 -0.0215742
-0.0519143 0.100153 -0.0217057
-0.0607099 0.122712 -0.00875549
-0.063599 0.125571 -0.00882713
-0.0607641 0.122712 -0.00876644
-0.0605775 0.122712 -0.00871497
-0.0897148 0.134397 0.00625234
-0.0788759 0.169451 -0.0363934
-0.0789265 0.170807 -0.0389866
-0.0692504 0.169451 -0.0530778
-0.0698687 0.167328 -0.0506713
-0.0168603 0.183932 -0.0251019
-0.0168603 0.182458 -0.0256258
-0.01497 0.182566 -0.0273019
-0.017232 0.181135 -0.0252733
-0.0168603 0.180616 -0.0255935
-0.0305553 0.0682224 -0.0273019
-0.0719044 0.0693896 -0.0039326
-0.0736314 0.0702988 -0.0039326
-0.0752837 0.0710041 -0.00284631
-0.07074 0.0684592 -0.0039326
-0.0752837 0.0699742 -0.000455435
-0.0752837 0.0700296 -0.000728331
-0.0752837 0.0700279 -0.000573405
-0.0752837 0.0695414 0.000395231
-0.0778645 0.149585 -0.0039326
-0.0774206 0.146081 -0.00394259
-0.0774266 0.146099 -0.0039326
-0.0776559 0.150783 -0.0039326
-0.0752837 0.170193 -0.0446121
-0.0752837 0.167546 -0.0412228
-0.0771173 0.169451 -0.0424629
-0.0752837 0.168555 -0.0430953
-0.0765557 0.169451 -0.0431653
-0.0746638 0.169451 -0.0442943
-0.028545 0.178949 -0.0152594
-0.0454545 0.116515 -0.0156173
-0.0458573 0.116513 -0.0156173
-0.0248237 0.0642885 -0.0329222
-0.0307788 0.0693212 -0.0273019
-0.0315792 0.0712209 -0.0273019
-0.0438018 0.122712 -0.011069
-0.0486998 0.122712 -0.0109653
-0.0168603 0.111828 -0.0193955
-0.0164342 0.111027 -0.019683
-0.0137246 0.111027 -0.0191273
-0.0168603 0.109456 -0.0201348
-0.0195433 0.111027 -0.0194063
-0.0168603 0.107963 -0.021348
-0.0752837 0.0713986 -0.00490373
-0.076345 0.0717993 -0.0039326
-0.0752837 0.0714439 -0.00500776
-0.0783254 0.0733349 -0.0039326
-0.0817803 0.0735256 0.00775207
-0.0809535 0.0745995 0.0194367
0.0101923 0.0876579 -0.0314923
0.0109062 0.0876579 -0.0311392
-0.0806844 0.0759732 -0.00214519
-0.0807016 0.0759732 -0.00174249
-0.0813021 0.0759732 0.000496348
-0.0752837 0.149505 -0.0193528
-0.0721032 0.146081 -0.0204381
-0.0730325 0.146081 -0.0177117
-0.0752837 0.159665 -0.0279747
-0.0762533 0.160101 -0.0273019
-0.0735103 0.157766 -0.030073
-0.0750264 0.157766 -0.0248973
-0.0752162 0.159241 -0.0273019
-0.0752837 0.159673 -0.0279926
-0.0744386 0.157766 -0.026535
-0.0748787 0.158768 -0.0273019
-0.0692119 0.169451 -0.0531944
-0.0695208 0.163181 -0.0506713
-0.0857622 0.150966 0.00775207
-0.0869683 0.15083 0.00940907
-0.0863188 0.149089 0.00775207
-0.0379621 0.0684435 -0.0156173
-0.0386302 0.0759732 -0.018177
0.0181937 0.123286 -0.0053151
0.0184476 0.122712 -0.00611011
0.0177522 0.124285 -0.0039326
0.0156784 0.125204 -0.0039326
0.0208709 0.122537 -0.0039326
0.0181937 0.124882 -0.00237906
0.0206716 0.122712 -0.00381697
-0.0806674 0.0759732 -0.0023695
-0.0752837 0.0729385 -0.00720637
-0.0785048 0.0734896 -0.0039326
-0.0785914 0.0759732 -0.00597465
-0.0786001 0.0736182 -0.0039326
-0.0808498 0.0786438 -0.0039326
-0.0799496 0.0763409 -0.0039326
-0.0817592 0.0759732 0.0010841
-0.0819116 0.0738769 0.00775207
-0.082561 0.0759732 0.0114811
-0.0818441 0.0737043 0.00775207
-0.0834744 0.0759732 0.00731484
-0.0814821 0.0731244 0.00775207
-0.0825404 0.0759732 0.0119302
-0.0837051 0.0764398 0.00775207
-0.0809904 0.0746867 0.0194367
-0.0827812 0.0759732 0.0153448
-0.0819306 0.0758851 0.0194367
-0.0819158 0.0759732 0.0198766
-0.0808528 0.0743794 0.0194367
-0.0815664 0.0759732 0.0217098
-0.0877737 0.146081 0.0088297
-0.0869683 0.145903 0.00809585
-0.086591 0.145819 0.00775207
-0.0869683 0.14801 0.008031
-0.0866712 0.148211 0.00775207
-0.0894278 0.146081 0.0107787
-0.08913 0.146081 0.0102069
-0.0889383 0.146081 0.00992025
-0.0869683 0.144274 0.00828165
-0.0863316 0.14369 0.00775207
-0.0847759 0.146081 0.00596766
-0.0852125 0.146081 0.00647852
-0.0842712 0.146081 0.00523879
-0.0709145 0.157766 -0.0443742
-0.069703 0.156093 -0.0506713
-0.0696309 0.15653 -0.0506713
-0.0704676 0.157766 -0.0462657
-0.0712019 0.157766 -0.0424873
-0.0736301 0.15573 -0.0273019
-0.0752837 0.162711 -0.0336928
-0.0752837 0.162611 -0.0334925
-0.084124 0.0769461 0.00775207
-0.0852005 0.0789222 0.00775207
-0.0833215 0.0759732 0.00624998
-0.0688042 0.134397 -0.00835989
-0.0916661 0.148523 0.0194367
0.0298784 0.0879969 -0.020525
0.0304653 0.0876579 -0.0201758
0.0230379 0.0876579 -0.0243575
0.0257636 0.0876579 -0.0231957
-0.0447685 0.0876579 -0.0218686
-0.0492306 0.0876579 -0.0217747
-0.00517563 0.109575 -0.0222704
-0.00099978 0.111027 -0.0201735
-0.000470305 0.111027 -0.0199795
-0.028545 0.0714218 -0.0331436
-0.028545 0.0734569 -0.0344341
-0.0303063 0.0759732 -0.0335742
-0.0316782 0.0759732 -0.0311023
-0.0305457 0.0759732 -0.0332406
-0.028545 0.0699652 -0.0322529
-0.0329834 0.0759732 -0.0278802
-0.0335563 0.0765352 -0.0273019
-0.0326719 0.0747001 -0.0273019
-0.0320178 0.0759732 -0.0299195
-0.0323082 0.0759732 -0.0287416
-0.0336044 0.0759732 -0.0266913
-0.0335766 0.0766304 -0.0273019
-0.0340515 0.0759732 -0.0244762
-0.0342176 0.0759732 -0.0233938
-0.0343716 0.0759732 -0.0216117
0.0181937 0.102447 -0.021443
0.0240508 0.0993425 -0.0203017
-0.0859353 0.0803107 0.00775207
-0.0827295 0.0759732 0.00334436
0.00952506 0.111027 -0.0193158
0.0126108 0.111027 -0.0184126
0.00650904 0.110077 -0.0201372
0.0059726 0.111027 -0.0201439
0.00650904 0.107631 -0.0201718
-0.0782371 0.161617 -0.0273019
-0.0752837 0.0802696 -0.0115128
-0.0752837 0.0797677 -0.0111656
-0.0752837 0.0806561 -0.0117055
-0.0752837 0.080987 -0.0119426
-0.0729638 0.0823451 -0.0156173
-0.0813488 0.0803247 -0.0039326
-0.0825713 0.0822678 -0.0039326
-0.0752837 0.144691 -0.00660609
-0.0752837 0.14317 -0.00595257
-0.0752837 0.152314 -0.0176434
-0.0761719 0.150456 -0.0156173
-0.0734235 0.157766 -0.0303082
-0.028545 0.075408 -0.0349698
-0.0297004 0.0759732 -0.0341078
-0.0351117 0.0759732 -0.0202605
-0.063599 0.174633 -0.0613615
-0.063599 0.176193 -0.0612512
-0.0830062 0.0828826 -0.0039326
-0.0859616 0.0805103 0.00775207
-0.0860789 0.0808979 0.00775207
-0.0869683 0.148665 0.00827508
-0.0865664 0.148547 0.00775207
0.00717771 0.118447 -0.0156173
0.00650904 0.114663 -0.018677
0.00650904 0.113371 -0.0193231
-0.0778469 0.0876579 -0.0117374
-0.0803177 0.0876579 -0.00827041
-0.0805365 0.0876579 -0.00788389
-0.083448 0.0840843 -0.0039326
-0.0825099 0.0876579 -0.00600151
-0.080832 0.0876579 -0.0075755
-0.0864006 0.0838514 0.00775207
-0.0869683 0.0844986 0.00577697
-0.0869683 0.0847621 0.0096666
-0.0870853 0.0849632 0.00775207
-0.0869683 0.0848183 0.00807635
-0.0869683 0.0849543 0.00906224
-0.088652 0.0876579 0.00888283
-0.0869683 0.084436 0.0124119
-0.0869683 0.0845083 0.0126036
-0.085894 0.0821348 0.0194367
-0.0854705 0.0802914 0.0194367
-0.0861585 0.0838214 0.0194367
-0.0915516 0.141363 0.0194367
-0.0890973 0.143279 0.0311214
0.0298784 0.117 -0.00261831
0.0308732 0.115195 -0.0039326
0.0298784 0.11214 -0.00895118
0.0302955 0.115612 -0.0039326
-0.0752837 0.154417 -0.0186918
-0.0739995 0.157394 -0.0273019
-0.028545 0.0845362 -0.0352752
-0.0331076 0.079345 -0.0273019
-0.0752837 0.0844577 -0.0142684
-0.0776795 0.0876579 -0.0119155
-0.0752837 0.0831776 -0.0135415
-0.0729849 0.0823786 -0.0156173
-0.0869683 0.0851065 0.00349584
-0.086568 0.0847328 0.0194367
-0.0869683 0.0848681 0.0175907
-0.0885712 0.0876579 0.0185411
-0.0869683 0.0848888 0.0169343
-0.0869683 0.0861022 0.0221704
-0.08833 0.0876579 0.0199561
-0.0886493 0.0880227 0.0194367
-0.0548801 0.157766 -0.00122632
-0.0695534 0.157766 -0.0508272
-0.0695641 0.158312 -0.0506713
-0.0695961 0.155514 -0.0506713
-0.0752837 0.153211 -0.0162242
-0.0769266 0.154648 -0.0156173
-0.0752837 0.153417 -0.0167953
-0.0752837 0.152195 -0.0160593
-0.0758142 0.151143 -0.0156173
0.0311328 0.0876579 -0.0197645
0.0298784 0.0863919 -0.0205783
0.0298784 0.0904061 -0.0198279
0.0306275 0.0876579 -0.0200522
0.0306857 0.0876579 -0.0200212
0.0298784 0.0873435 -0.0205786
-0.088743 0.0876579 0.0093323
-0.088871 0.0876579 0.0128056
-0.088536 0.0876579 0.0165811
-0.0916348 0.143786 0.0194367
-0.0916092 0.146081 0.02027
-0.0896473 0.141197 0.0311214
-0.0752837 0.145326 -0.00766358
-0.0754802 0.146081 -0.00850439
-0.028545 0.0845536 -0.0352669
-0.028545 0.0846134 -0.0352349
-0.0291878 0.0876579 -0.032415
-0.028545 0.084279 -0.0352957
-0.0331807 0.0830709 -0.0273019
-0.0326082 0.0846851 -0.0273019
-0.031679 0.0866011 -0.0273019
-0.0314171 0.0876579 -0.0267446
0.0265571 0.118995 -0.0039326
0.0267329 0.118795 -0.0039326
0.0269199 0.118683 -0.0039326
0.0260936 0.119328 -0.0039326
-0.0752837 0.084649 -0.0143104
-0.0775206 0.0876579 -0.0121182
-0.0746605 0.0876579 -0.0149547
-0.0730154 0.0824377 -0.0156173
-0.0752837 0.0879872 -0.0143396
-0.0828755 0.0876579 -0.00552307
-0.0837863 0.0859644 -0.0039326
-0.0848259 0.0876579 -0.0028217
-0.0853184 0.0876579 -0.000988868
-0.0869683 0.0867423 0.00179386
-0.0866092 0.0876579 0.00123148
-0.0869683 0.0868067 0.00177995
-0.0872005 0.0876579 0.00226862
-0.088569 0.0873674 0.00775207
-0.0886931 0.0876579 0.00840007
-0.0878577 0.0876579 0.00417236
-0.0883529 0.0876579 0.00569516
-0.0887281 0.088452 0.00775207
-0.0884267 0.0876579 0.0149392
-0.0752837 0.155885 -0.0211615
-0.0295544 0.0876579 -0.0317348
-0.0313382 0.0872443 -0.0273019
-0.0313929 0.0876579 -0.0267898
-0.0841331 0.0884365 -0.0039326
-0.0844037 0.0891627 -0.0039326
-0.0869683 0.142881 0.00929023
-0.0859816 0.142967 0.00775207
-0.0773255 0.155051 -0.0156173
-0.063599 0.169003 -0.0608742
-0.0631658 0.169451 -0.0611113
-0.0648946 0.169451 -0.060408
-0.0654558 0.169451 -0.0597999
-0.0314486 0.0876579 -0.0266745
-0.0869683 0.0895311 0.00204045
-0.0869683 0.0906411 0.00275739
-0.0761621 0.150356 -0.0156173
-0.0752837 0.109505 -0.00800919
-0.0736371 0.111027 -0.00835476
-0.0311621 0.0877809 -0.0273019
-0.028545 0.0878561 -0.0330056
-0.0281502 0.0876579 -0.0335882
-0.0318581 0.0876579 -0.0262013
-0.0717448 0.0940253 -0.0156173
-0.0730498 0.0827462 -0.0156173
-0.0745056 0.0876579 -0.0150513
-0.0869683 0.0925937 0.00372306
-0.0830031 0.146081 0.00260931
-0.0316593 0.115279 -0.0156173
-0.028545 0.112618 -0.0172623
-0.0304245 0.115368 -0.0156173
-0.028545 0.11685 -0.014127
-0.0322182 0.115264 -0.0156173
-0.0139484 0.0978757 -0.0273019
-0.0117921 0.0981628 -0.0273019
-0.00874632 0.0993425 -0.0251263
-0.0131755 0.0993425 -0.0244209
-0.0120771 0.0993425 -0.0247004
0.0532477 0.0682304 0.00148357
-0.000243456 0.11815 -0.0156173
0.00151802 0.118464 -0.0156173
0.0181937 0.122314 -0.00697727
0.0181937 0.117847 -0.0121737
0.015134 0.122712 -0.00856161
0.0358928 0.0876579 -0.0167491
0.0369533 0.0876579 -0.0158278
-0.0168603 0.10234 -0.0235397
0.00755844 0.118234 -0.0156173
0.00650904 0.118167 -0.0160369
0.007033 0.118507 -0.0156173
0.00650904 0.118823 -0.0152622
0.00650904 0.112073 -0.0198887
-0.00517563 0.116057 -0.0163514
-0.00763315 0.117248 -0.0156173
-0.00517563 0.114236 -0.0178298
0.0477799 0.0726411 0.00775207
-0.028545 0.176197 -0.0169778
-0.0296265 0.177112 -0.0156173
-0.0168603 0.185603 -0.0242929
-0.0418885 0.114683 -0.0156173
-0.0402296 0.113617 -0.0166143
-0.0434635 0.111027 -0.0177194
0.00650904 0.0990067 -0.022786
0.00144625 0.0993425 -0.0237056
0.00362327 0.0993425 -0.0232625
0.00650904 0.101044 -0.0215561
0.000467797 0.0980424 -0.0273019
0.00262722 0.0993425 -0.0234644
0.00345294 0.122712 -0.0109565
0.00650904 0.123734 -0.00978149
0.0532477 0.0676997 0.00117777
0.0546327 0.0642885 -8.72511e-05
-0.0168603 0.0354617 -0.0266874
-0.0168603 0.0362443 -0.0269509
-0.00517563 0.101167 -0.0232782
-0.00517563 0.10116 -0.0232801
-0.00517563 0.101162 -0.0232789
-0.00517563 0.101173 -0.0232797
0.0140115 0.115718 -0.0156173
